# .PCD v0.7 - Point Cloud Data file format
VERSION 0.7
FIELDS x y z
SIZE 4 4 4
TYPE F F F
COUNT 1 1 1
WIDTH 1939
HEIGHT 1
VIEWPOINT 0 0 0 1 0 0 0
POINTS 1939
DATA ascii
-108.652 46.1146 122.54
-108.286 46.1203 122.34
-107.912 46.1225 122.261
-107.545 46.128 122.065
-107.173 46.131 121.959
-106.805 46.136 121.781
-106.447 46.1453 121.45
-106.08 46.1508 121.254
-105.72 46.1597 120.939
-105.348 46.1631 120.819
-104.979 46.1676 120.657
-104.615 46.1745 120.413
-104.258 46.1848 120.048
-103.891 46.1905 119.846
-103.521 46.195 119.685
-103.161 46.2039 119.369
-102.806 46.2153 118.964
-102.451 46.2265 118.568
-102.085 46.2328 118.342
-101.724 46.2418 118.025
-101.363 46.2507 117.709
-101.002 46.2597 117.387
-100.655 46.2749 116.848
-100.304 46.2886 116.361
-99.9285 46.2911 116.273
-99.5635 46.2985 116.012
-99.1925 46.3031 115.849
-98.8265 46.3101 115.6
-98.4819 46.3271 114.994
-98.1382 46.3448 114.366
-97.784 46.3576 113.911
-97.4157 46.3638 113.691
-97.0648 46.3784 113.173
-96.7259 46.3988 112.447
-96.3667 46.4097 112.063
-96.023 46.4281 111.41
-95.6829 46.4484 110.688
-95.3334 46.4643 110.124
-146.55 46.0815 110.144
-146.059 46.0471 111.374
-145.579 46.0162 112.482
-145.064 45.9741 113.99
-144.646 45.9623 114.412
-144.275 45.9656 114.294
-143.863 45.9557 114.647
-143.372 45.9208 115.899
-142.949 45.9071 116.388
-142.585 45.9126 116.19
-142.167 45.9005 116.622
-141.755 45.8903 116.991
-141.38 45.8921 116.924
-141.003 45.8933 116.882
-140.601 45.8865 117.125
-140.167 45.869 117.753
-139.77 45.8635 117.948
-139.329 45.8435 118.665
-138.887 45.8232 119.391
-138.478 45.8138 119.73
-138.073 45.8054 120.03
-137.698 45.807 119.971
-137.307 45.8033 120.103
-136.896 45.7928 120.48
-136.488 45.7835 120.813
-136.093 45.7783 120.999
-135.688 45.7697 121.309
-135.278 45.7597 121.666
-134.898 45.7593 121.678
-134.501 45.7535 121.886
-134.1 45.746 122.154
-133.71 45.7426 122.276
-133.318 45.7382 122.434
-132.911 45.7285 122.781
-132.515 45.7229 122.983
-132.119 45.7169 123.196
-131.723 45.7114 123.395
-131.338 45.7094 123.467
-130.948 45.7056 123.603
-130.556 45.7009 123.771
-130.168 45.6979 123.878
-129.78 45.6947 123.991
-129.388 45.69 124.159
-129 45.6869 124.27
-128.612 45.6837 124.384
-128.231 45.6829 124.413
-127.852 45.683 124.411
-127.475 45.6835 124.392
-127.076 45.6764 124.649
-126.678 45.6695 124.896
-126.282 45.6631 125.122
-125.91 45.6658 125.027
-125.517 45.6606 125.214
-125.143 45.6622 125.156
-124.758 45.6599 125.238
-124.373 45.6575 125.324
-123.998 45.659 125.272
-123.627 45.6617 125.175
-123.26 45.6662 125.013
-122.877 45.6644 125.077
-122.475 45.656 125.378
-122.087 45.6524 125.508
-121.715 45.6549 125.417
-121.34 45.6564 125.365
-120.965 45.6577 125.317
-120.586 45.6577 125.316
-120.192 45.6518 125.529
-119.809 45.6502 125.585
-119.441 45.6542 125.442
-119.077 45.6598 125.242
-118.706 45.6628 125.136
-118.319 45.6598 125.241
-117.936 45.658 125.306
-117.557 45.6577 125.317
-117.185 45.6604 125.219
-116.81 45.662 125.162
-116.437 45.6642 125.084
-116.056 45.6632 125.119
-115.689 45.6678 124.955
-115.339 45.6795 124.535
-114.965 45.6814 124.468
-114.585 45.6808 124.489
-114.203 45.6796 124.533
-113.827 45.6809 124.487
-113.468 45.6887 124.207
-113.104 45.6949 123.986
-112.735 45.6987 123.849
-112.363 45.7019 123.736
-111.991 45.7046 123.638
-111.615 45.7057 123.597
-111.223 45.7007 123.777
-110.842 45.7 123.804
-110.485 45.7089 123.486
-110.122 45.7155 123.246
-109.758 45.722 123.014
-109.394 45.7284 122.786
-109.032 45.7357 122.523
-108.67 45.7429 122.268
-108.297 45.7457 122.167
-107.924 45.7484 122.07
-107.559 45.7546 121.846
-107.185 45.7569 121.766
-106.815 45.761 121.62
-106.459 45.771 121.26
-106.103 45.7812 120.895
-105.744 45.7902 120.575
-105.374 45.7947 120.412
-104.995 45.7948 120.41
-104.631 45.8017 120.16
-104.27 45.81 119.864
-103.893 45.8112 119.822
-103.523 45.8158 119.656
-103.169 45.8272 119.249
-102.815 45.8389 118.831
-102.461 45.8509 118.4
-102.094 45.8566 118.195
-101.725 45.862 118.004
-101.35 45.8645 117.914
-100.998 45.877 117.465
-100.663 45.8977 116.723
-100.31 45.9105 116.265
-99.9391 45.9152 116.099
-99.5769 45.9238 115.791
-99.205 45.928 115.641
-98.8387 45.9347 115.399
-98.4928 45.9511 114.812
-98.1477 45.968 114.207
-97.787 45.9777 113.861
-97.4216 45.9852 113.591
-97.0737 46.0011 113.023
-96.7386 46.0232 112.231
-96.3878 46.038 111.702
-96.0411 46.0548 111.099
-95.7014 46.0752 110.37
-95.359 46.0944 109.681
-146.168 45.6993 110.142
-145.642 45.6544 111.765
-145.105 45.6055 113.53
-144.66 45.5856 114.248
-144.326 45.6004 113.713
-143.923 45.5935 113.963
-143.4 45.5486 115.583
-142.958 45.5292 116.285
-142.58 45.5301 116.252
-142.171 45.5211 116.576
-141.768 45.5138 116.838
-141.396 45.5167 116.736
-141.027 45.5205 116.6
-140.616 45.5108 116.948
-140.162 45.4868 117.814
-139.765 45.4815 118.006
-139.356 45.4721 118.346
-138.915 45.4521 119.066
-138.507 45.4432 119.387
-138.12 45.4409 119.47
-137.728 45.4369 119.615
-137.329 45.4307 119.842
-136.918 45.4205 120.21
-136.502 45.4082 120.652
-136.096 45.3996 120.964
-135.698 45.3936 121.178
-135.295 45.3856 121.469
-134.906 45.3824 121.583
-134.513 45.3781 121.739
-134.118 45.3727 121.935
-133.722 45.3672 122.132
-133.325 45.3611 122.354
-132.927 45.3547 122.583
-132.533 45.3497 122.765
-132.137 45.3439 122.974
-131.74 45.3379 123.189
-131.348 45.3335 123.348
-130.964 45.3318 123.41
-130.575 45.3283 123.536
-130.187 45.3252 123.648
-129.792 45.3197 123.849
-129.401 45.3157 123.992
-129.008 45.3109 124.166
-128.62 45.3075 124.288
-128.246 45.3093 124.222
-127.868 45.3097 124.21
-127.482 45.3073 124.296
-127.074 45.2968 124.676
-126.686 45.2935 124.792
-126.291 45.2877 125.002
-125.927 45.2929 124.816
-125.54 45.29 124.919
-125.162 45.2904 124.906
-124.774 45.287 125.027
-124.392 45.2857 125.077
-124.011 45.2851 125.097
-123.642 45.2886 124.97
-123.274 45.2927 124.824
-122.889 45.2903 124.911
-122.485 45.281 125.243
-122.099 45.2782 125.345
-121.731 45.2821 125.205
-121.354 45.2828 125.18
-120.969 45.2805 125.264
-120.588 45.2796 125.296
-120.204 45.2778 125.36
-119.82 45.2755 125.442
-119.445 45.2772 125.382
-119.081 45.2825 125.191
-118.706 45.284 125.135
-118.329 45.2846 125.113
-117.955 45.2867 125.04
-117.576 45.2865 125.047
-117.195 45.2857 125.077
-116.816 45.2856 125.08
-116.44 45.2865 125.045
-116.068 45.2892 124.949
-115.704 45.2951 124.737
-115.349 45.3045 124.396
-114.974 45.3058 124.348
-114.584 45.3015 124.503
-114.203 45.3008 124.532
-113.834 45.3046 124.392
-113.471 45.3109 124.166
-113.106 45.3168 123.952
-112.745 45.3237 123.702
-112.384 45.3313 123.428
-112.013 45.3344 123.317
-111.635 45.3348 123.304
-111.238 45.3275 123.566
-110.86 45.328 123.548
-110.508 45.339 123.149
-110.151 45.3485 122.807
-109.785 45.354 122.607
-109.416 45.3583 122.453
-109.049 45.3635 122.266
-108.681 45.3679 122.108
-108.306 45.3699 122.036
-107.934 45.3732 121.916
-107.566 45.378 121.741
-107.189 45.3792 121.7
-106.825 45.3858 121.462
-106.476 45.3988 120.992
-106.123 45.4099 120.592
-105.764 45.4191 120.258
-105.389 45.4213 120.179
-105.015 45.4238 120.09
-104.655 45.4321 119.79
-104.288 45.4378 119.585
-103.91 45.4387 119.551
-103.542 45.4441 119.356
-103.189 45.4562 118.92
-102.831 45.4658 118.572
-102.468 45.4736 118.291
-102.097 45.4778 118.139
-101.727 45.4822 117.982
-101.363 45.4897 117.709
-101.018 45.5057 117.131
-100.682 45.5259 116.402
-100.324 45.5362 116.033
-99.9584 45.5431 115.782
-99.5915 45.5495 115.55
-99.2251 45.5562 115.308
-98.8701 45.5682 114.875
-98.5249 45.5849 114.274
-98.1705 45.5973 113.825
-97.8042 45.6043 113.571
-97.4399 45.6123 113.282
-97.0873 45.6259 112.792
-96.7444 45.6442 112.132
-96.4025 45.6631 111.45
-96.0637 45.6836 110.71
-95.7155 45.6998 110.126
-145.756 45.3078 110.481
-145.232 45.2638 112.082
-144.716 45.2218 113.611
-144.391 45.2393 112.974
-143.973 45.228 113.386
-143.446 45.1823 115.051
-143.001 45.1619 115.793
-142.594 45.1536 116.093
-142.193 45.1474 116.319
-141.798 45.1427 116.492
-141.411 45.1408 116.562
-141.035 45.1422 116.511
-140.618 45.1308 116.925
-140.158 45.1053 117.855
-139.778 45.1054 117.851
-139.379 45.0993 118.071
-138.951 45.0837 118.641
-138.538 45.0732 119.02
-138.151 45.0709 119.106
-137.756 45.0659 119.287
-137.347 45.0565 119.63
-136.928 45.0437 120.096
-136.504 45.0291 120.628
-136.101 45.0216 120.9
-135.711 45.0182 121.024
-135.312 45.0116 121.264
-134.91 45.0042 121.534
-134.519 45.0003 121.676
-134.125 44.9955 121.852
-133.727 44.9894 122.072
-133.325 44.9819 122.346
-132.931 44.9768 122.532
-132.542 44.9735 122.652
-132.152 44.9698 122.786
-131.747 44.9611 123.102
-131.358 44.9579 123.219
-130.977 44.9572 123.246
-130.589 44.954 123.362
-130.193 44.9485 123.563
-129.799 44.9433 123.749
-129.41 44.9399 123.875
-129.018 44.9353 124.044
-128.636 44.9342 124.083
-128.264 44.9367 123.993
-127.885 44.9365 124
-127.491 44.9314 124.183
-127.086 44.922 124.526
-126.708 44.9226 124.505
-126.323 44.9201 124.596
-125.939 44.9184 124.656
-125.563 44.9196 124.614
-125.181 44.9184 124.656
-124.8 44.9174 124.693
-124.416 44.9156 124.76
-124.034 44.9145 124.801
-123.657 44.9151 124.776
-123.279 44.9156 124.758
-122.889 44.9114 124.914
-122.497 44.9064 125.093
-122.118 44.9064 125.093
-121.746 44.9091 124.994
-121.364 44.9079 125.039
-120.972 44.903 125.217
-120.588 44.9011 125.287
-120.216 44.9035 125.2
-119.837 44.9033 125.207
-119.46 44.904 125.184
-119.087 44.9064 125.096
-118.713 44.9081 125.031
-118.347 44.9127 124.864
-117.976 44.9157 124.758
-117.596 44.9154 124.766
-117.217 44.9153 124.769
-116.841 44.9166 124.724
-116.46 44.9155 124.765
-116.091 44.9193 124.625
-115.722 44.923 124.49
-115.351 44.9261 124.378
-114.974 44.9272 124.338
-114.589 44.9248 124.424
-114.219 44.9282 124.303
-113.849 44.9316 124.178
-113.477 44.9345 124.071
-113.108 44.9385 123.927
-112.75 44.9468 123.622
-112.395 44.9565 123.269
-112.027 44.9609 123.109
-111.654 44.9636 123.014
-111.261 44.958 123.216
-110.887 44.9601 123.138
-110.535 44.9712 122.735
-110.18 44.9809 122.381
-109.808 44.984 122.269
-109.434 44.9863 122.187
-109.062 44.9894 122.074
-108.69 44.9923 121.967
-108.32 44.9963 121.821
-107.953 45.0015 121.632
-107.577 45.0031 121.574
-107.198 45.0031 121.575
-106.847 45.0151 121.136
-106.497 45.0277 120.678
-106.142 45.0384 120.288
-105.782 45.0468 119.982
-105.412 45.0508 119.836
-105.044 45.0563 119.638
-104.684 45.0649 119.325
-104.314 45.0691 119.169
-103.94 45.0717 119.076
-103.572 45.0771 118.878
-103.216 45.0877 118.494
-102.854 45.0956 118.206
-102.478 45.0978 118.127
-102.125 45.1098 117.688
-101.763 45.118 117.39
-101.408 45.1292 116.984
-101.057 45.1425 116.497
-100.709 45.1571 115.966
-100.345 45.1646 115.696
-99.9712 45.168 115.571
-99.597 45.1711 115.459
-99.2443 45.1839 114.991
-98.8993 45.2004 114.39
-98.549 45.2146 113.873
-98.1924 45.2261 113.457
-97.8286 45.2342 113.16
-97.4664 45.2432 112.834
-97.1081 45.254 112.439
-96.7543 45.2671 111.963
-96.4185 45.2887 111.178
-96.0637 45.3015 110.711
-95.7183 45.3189 110.078
-145.806 44.9413 109.906
-145.245 44.8859 111.939
-144.803 44.8672 112.627
-144.368 44.8507 113.233
-143.982 44.8494 113.279
-143.515 44.8226 114.263
-143.087 44.8081 114.799
-142.667 44.7957 115.254
-142.261 44.7879 115.538
-141.858 44.7809 115.796
-141.443 44.7703 116.187
-141.035 44.7616 116.504
-140.63 44.7537 116.795
-140.215 44.743 117.188
-139.818 44.7378 117.379
-139.414 44.73 117.666
-138.979 44.7126 118.303
-138.557 44.699 118.804
-138.167 44.6961 118.91
-137.773 44.6914 119.083
-137.357 44.6798 119.506
-136.938 44.6671 119.974
-136.523 44.6557 120.391
-136.124 44.6495 120.619
-135.731 44.6451 120.782
-135.334 44.6394 120.991
-134.927 44.6304 121.322
-134.536 44.6266 121.46
-134.137 44.6202 121.695
-133.745 44.6158 121.856
-133.343 44.6084 122.13
-132.939 44.6001 122.433
-132.548 44.5962 122.577
-132.162 44.5939 122.662
-131.77 44.5897 122.815
-131.381 44.5864 122.936
-130.987 44.5814 123.12
-130.591 44.5757 123.331
-130.193 44.5692 123.567
-129.806 44.5667 123.662
-129.426 44.5662 123.678
-129.041 44.5641 123.757
-128.659 44.563 123.795
-128.279 44.5629 123.799
-127.894 44.5607 123.882
-127.494 44.5536 124.142
-127.093 44.5457 124.43
-126.714 44.5457 124.433
-126.337 44.5463 124.408
-125.949 44.5432 124.524
-125.573 44.5442 124.485
-125.197 44.5452 124.451
-124.823 44.5468 124.39
-124.436 44.544 124.493
-124.046 44.5402 124.635
-123.661 44.538 124.714
-123.281 44.5373 124.74
-122.896 44.5353 124.813
-122.515 44.5344 124.845
-122.136 44.5344 124.846
-121.754 44.5333 124.886
-121.367 44.53 125.007
-120.975 44.5251 125.187
-120.593 44.5241 125.224
-120.22 44.5262 125.146
-119.855 44.5315 124.955
-119.482 44.5336 124.877
-119.107 44.5348 124.833
-118.73 44.5356 124.804
-118.357 44.5377 124.727
-117.985 44.5404 124.625
-117.609 44.5415 124.587
-117.235 44.5435 124.513
-116.868 44.5478 124.353
-116.49 44.5483 124.337
-116.117 44.5506 124.253
-115.743 44.5523 124.19
-115.364 44.5523 124.191
-114.994 44.556 124.053
-114.624 44.5593 123.934
-114.246 44.5598 123.914
-113.868 44.5601 123.904
-113.491 44.5608 123.876
-113.114 44.5618 123.84
-112.75 44.5677 123.623
-112.392 44.576 123.317
-112.03 44.583 123.064
-111.67 44.5905 122.787
-111.288 44.5896 122.821
-110.924 44.5956 122.598
-110.559 44.6013 122.392
-110.186 44.6038 122.299
-109.814 44.6069 122.186
-109.441 44.6095 122.091
-109.066 44.6115 122.017
-108.697 44.6159 121.856
-108.339 44.6246 121.534
-107.979 44.6328 121.235
-107.596 44.6312 121.294
-107.217 44.6316 121.279
-106.864 44.6428 120.866
-106.515 44.6555 120.4
-106.161 44.6663 120.004
-105.799 44.674 119.722
-105.433 44.6798 119.508
-105.07 44.6874 119.229
-104.706 44.6941 118.982
-104.333 44.6972 118.87
-103.962 44.7013 118.717
-103.599 44.7085 118.453
-103.24 44.7179 118.11
-102.882 44.7273 117.763
-102.526 44.7383 117.361
-102.162 44.7455 117.096
-101.801 44.7541 116.781
-101.448 44.7661 116.338
-101.093 44.7775 115.919
-100.735 44.7878 115.542
-100.368 44.7943 115.305
-99.9763 44.7893 115.486
-99.603 44.7928 115.36
-99.2525 44.8066 114.854
-98.8998 44.8194 114.382
-98.5496 44.8335 113.863
-98.1996 44.8479 113.336
-97.8456 44.8605 112.874
-97.4824 44.8689 112.564
-97.1201 44.8779 112.235
-96.7614 44.8885 111.843
-96.4192 44.907 111.166
-96.0633 44.9192 110.717
-145.322 44.5277 111.068
-144.775 44.477 112.944
-144.426 44.4872 112.566
-144.001 44.4736 113.071
-143.602 44.4682 113.269
-143.213 44.4659 113.356
-142.762 44.4444 114.152
-142.342 44.4323 114.601
-141.901 44.4134 115.299
-141.458 44.3941 116.015
-141.051 44.3858 116.32
-140.683 44.3899 116.171
-140.277 44.382 116.462
-139.847 44.3663 117.043
-139.428 44.354 117.5
-138.993 44.3366 118.143
-138.576 44.325 118.574
-138.193 44.3241 118.605
-137.802 44.3205 118.739
-137.385 44.3087 119.176
-136.97 44.2974 119.594
-136.556 44.2866 119.993
-136.156 44.28 120.239
-135.762 44.2754 120.41
-135.367 44.2704 120.594
-134.962 44.2622 120.897
-134.567 44.2572 121.083
-134.159 44.2477 121.434
-133.76 44.2415 121.666
-133.358 44.2341 121.94
-132.97 44.2312 122.045
-132.589 44.2307 122.065
-132.204 44.2287 122.137
-131.802 44.2212 122.418
-131.396 44.2122 122.75
-130.992 44.2037 123.065
-130.594 44.1974 123.298
-130.205 44.1943 123.412
-129.829 44.1952 123.379
-129.455 44.1969 123.315
-129.068 44.1942 123.416
-128.68 44.1914 123.519
-128.293 44.1887 123.619
-127.901 44.1842 123.789
-127.5 44.1764 124.077
-127.102 44.1698 124.319
-126.72 44.1687 124.361
-126.349 44.1716 124.255
-125.969 44.1713 124.263
-125.587 44.1701 124.308
-125.221 44.1746 124.143
-124.84 44.1739 124.169
-124.444 44.168 124.386
-124.044 44.1606 124.661
-123.66 44.1587 124.729
-123.284 44.1595 124.701
-122.903 44.1589 124.723
-122.528 44.1604 124.669
-122.156 44.1627 124.581
-121.774 44.1616 124.623
-121.38 44.1563 124.821
-120.996 44.1543 124.896
-120.62 44.1552 124.862
-120.238 44.1541 124.9
-119.867 44.1569 124.799
-119.498 44.1604 124.667
-119.121 44.1611 124.642
-118.738 44.1596 124.696
-118.362 44.1609 124.648
-117.993 44.1645 124.515
-117.62 44.1667 124.434
-117.246 44.1687 124.362
-116.877 44.1725 124.222
-116.507 44.1758 124.099
-116.132 44.1773 124.042
-115.754 44.1775 124.036
-115.386 44.1819 123.874
-115.016 44.1853 123.745
-114.633 44.1836 123.809
-114.248 44.1815 123.888
-113.879 44.1855 123.739
-113.512 44.1901 123.569
-113.132 44.1898 123.58
-112.758 44.1917 123.51
-112.389 44.1959 123.354
-112.029 44.2031 123.088
-111.68 44.215 122.645
-111.313 44.2203 122.449
-110.936 44.2209 122.427
-110.558 44.2218 122.395
-110.187 44.2252 122.27
-109.825 44.2318 122.023
-109.453 44.235 121.907
-109.079 44.2371 121.826
-108.713 44.2429 121.612
-108.359 44.253 121.239
-107.996 44.2601 120.976
-107.607 44.2561 121.123
-107.228 44.2565 121.109
-106.874 44.267 120.719
-106.517 44.2768 120.359
-106.163 44.2873 119.969
-105.808 44.2979 119.578
-105.454 44.3086 119.179
-105.09 44.3156 118.92
-104.719 44.3196 118.772
-104.352 44.325 118.573
-103.985 44.3308 118.359
-103.622 44.3382 118.083
-103.257 44.3448 117.839
-102.899 44.3543 117.488
-102.547 44.3665 117.034
-102.187 44.3755 116.702
-101.831 44.3863 116.301
-101.478 44.3985 115.85
-101.115 44.4064 115.558
-100.75 44.4134 115.3
-100.374 44.4159 115.208
-99.9875 44.4133 115.302
-99.6281 44.4229 114.946
-99.2686 44.4326 114.588
-98.9007 44.4386 114.365
-98.5423 44.4489 113.985
-98.2023 44.4676 113.291
-97.8628 44.4867 112.585
-97.5023 44.4963 112.227
-97.135 44.503 111.982
-96.7768 44.5138 111.58
-96.4225 44.5266 111.108
-145.448 44.1839 109.638
-144.903 44.1345 111.485
-144.455 44.1143 112.239
-144.049 44.1069 112.515
-143.718 44.1223 111.939
-143.293 44.109 112.437
-142.82 44.0811 113.48
-142.369 44.0595 114.286
-141.922 44.039 115.053
-141.468 44.0164 115.897
-141.083 44.015 115.949
-140.705 44.0158 115.917
-140.29 44.0053 116.31
-139.865 43.9912 116.838
-139.456 43.9824 117.166
-139.036 43.9698 117.636
-138.616 43.9576 118.094
-138.219 43.9522 118.295
-137.817 43.9452 118.556
-137.402 43.934 118.972
-136.994 43.925 119.308
-136.579 43.9138 119.726
-136.174 43.906 120.021
-135.782 43.902 120.168
-135.388 43.8973 120.344
-134.991 43.8918 120.55
-134.595 43.8867 120.74
-134.187 43.8773 121.091
-133.78 43.8684 121.424
-133.376 43.8603 121.727
-132.978 43.8543 121.95
-132.609 43.8577 121.823
-132.22 43.8545 121.944
-131.814 43.8459 122.265
-131.408 43.8368 122.604
-131.008 43.83 122.857
-130.614 43.8252 123.039
-130.227 43.8223 123.145
-129.852 43.8239 123.087
-129.474 43.8244 123.069
-129.079 43.819 123.27
-128.691 43.8159 123.386
-128.306 43.8139 123.46
-127.915 43.8099 123.61
-127.513 43.8019 123.909
-127.126 43.7994 124.001
-126.742 43.7977 124.066
-126.381 43.8036 123.843
-126.007 43.8057 123.768
-125.626 43.8049 123.795
-125.244 43.8038 123.837
-124.858 43.8013 123.93
-124.456 43.7934 124.224
-124.055 43.7856 124.516
-123.67 43.7834 124.597
-123.287 43.7819 124.654
-122.902 43.7796 124.741
-122.532 43.7829 124.616
-122.174 43.7902 124.343
-121.798 43.7912 124.307
-121.412 43.7888 124.398
-121.029 43.7875 124.447
-120.642 43.7844 124.561
-120.257 43.7821 124.646
-119.883 43.7838 124.584
-119.514 43.7877 124.438
-119.136 43.788 124.429
-118.747 43.7844 124.562
-118.367 43.7838 124.584
-117.999 43.7879 124.431
-117.629 43.7912 124.306
-117.253 43.7924 124.264
-116.88 43.7943 124.19
-116.508 43.7971 124.085
-116.137 43.8001 123.975
-115.772 43.8056 123.771
-115.393 43.8055 123.774
-115.02 43.8077 123.692
-114.636 43.8057 123.766
-114.251 43.8037 123.84
-113.893 43.8116 123.544
-113.533 43.8192 123.263
-113.156 43.8197 123.242
-112.78 43.8213 123.182
-112.406 43.8231 123.116
-112.036 43.8268 122.979
-111.683 43.837 122.598
-111.32 43.8437 122.348
-110.935 43.8414 122.433
-110.556 43.8415 122.428
-110.209 43.8543 121.952
-109.854 43.8642 121.581
-109.482 43.8671 121.471
-109.107 43.8691 121.398
-108.745 43.8759 121.143
-108.387 43.8851 120.801
-108.01 43.886 120.765
-107.604 43.8755 121.159
-107.224 43.8752 121.169
-106.875 43.8878 120.698
-106.521 43.8983 120.307
-106.166 43.9087 119.92
-105.814 43.9203 119.486
-105.455 43.9289 119.163
-105.087 43.9342 118.968
-104.724 43.9412 118.704
-104.364 43.9498 118.385
-104 43.9569 118.119
-103.634 43.9629 117.894
-103.264 43.9673 117.729
-102.903 43.9755 117.424
-102.539 43.9828 117.15
-102.185 43.994 116.732
-101.842 44.0104 116.119
-101.497 44.026 115.536
-101.135 44.0342 115.233
-100.757 44.0357 115.176
-100.367 44.0318 115.32
-99.9987 44.0372 115.118
-99.6457 44.0496 114.655
-99.2845 44.0585 114.323
-98.9143 44.0634 114.14
-98.5601 44.0755 113.687
-98.224 44.0958 112.928
-97.8835 44.1144 112.237
-97.5282 44.1263 111.789
-97.1749 44.1393 111.306
-96.8284 44.1555 110.701
-145.061 43.8003 109.688
-144.557 43.7635 111.073
-144.107 43.7427 111.859
-143.74 43.7473 111.685
-143.3 43.7296 112.349
-142.831 43.7029 113.356
-142.413 43.6917 113.777
-141.958 43.6689 114.638
-141.529 43.6544 115.185
-141.125 43.6471 115.461
-140.711 43.6369 115.842
-140.294 43.6255 116.272
-139.89 43.6186 116.533
-139.497 43.6145 116.688
-139.085 43.6049 117.049
-138.661 43.591 117.571
-138.248 43.5809 117.955
-137.84 43.5723 118.279
-137.421 43.5599 118.745
-136.998 43.5463 119.258
-136.591 43.5377 119.583
-136.198 43.5336 119.735
-135.815 43.5325 119.776
-135.411 43.5249 120.062
-135.005 43.5166 120.377
-134.611 43.512 120.549
-134.202 43.5025 120.907
-133.804 43.4967 121.127
-133.399 43.4882 121.445
-132.995 43.4804 121.74
-132.595 43.4736 121.998
-132.201 43.4688 122.178
-131.814 43.4664 122.269
-131.424 43.463 122.398
-131.037 43.4604 122.494
-130.653 43.4587 122.559
-130.267 43.4564 122.643
-129.88 43.4541 122.731
-129.492 43.4512 122.841
-129.099 43.4465 123.017
-128.706 43.4419 123.19
-128.311 43.4365 123.395
-127.917 43.4313 123.591
-127.526 43.4273 123.742
-127.149 43.4281 123.709
-126.775 43.43 123.639
-126.398 43.4307 123.614
-126.024 43.4323 123.553
-125.651 43.4344 123.473
-125.27 43.4337 123.5
-124.878 43.4293 123.665
-124.477 43.4217 123.951
-124.083 43.4164 124.15
-123.701 43.4154 124.189
-123.317 43.4137 124.254
-122.931 43.4109 124.358
-122.558 43.4133 124.267
-122.202 43.4212 123.969
-121.826 43.4224 123.927
-121.44 43.4199 124.019
-121.046 43.4144 124.225
-120.653 43.4096 124.408
-120.272 43.4088 124.44
-119.906 43.4134 124.265
-119.545 43.42 124.017
-119.172 43.4221 123.937
-118.778 43.4166 124.145
-118.386 43.412 124.319
-118.015 43.4149 124.21
-117.649 43.4196 124.031
-117.276 43.4217 123.953
-116.896 43.4215 123.958
-116.527 43.425 123.827
-116.156 43.4282 123.708
-115.783 43.4306 123.615
-115.401 43.4293 123.666
-115.032 43.4333 123.514
-114.655 43.434 123.489
-114.275 43.4337 123.5
-113.907 43.438 123.337
-113.543 43.4439 123.116
-113.176 43.4484 122.945
-112.807 43.4524 122.794
-112.434 43.4549 122.702
-112.057 43.4558 122.667
-111.695 43.4624 122.419
-111.315 43.462 122.434
-110.937 43.4625 122.413
-110.574 43.4692 122.161
-110.225 43.4812 121.71
-109.867 43.4899 121.384
-109.495 43.4926 121.28
-109.124 43.4963 121.141
-108.769 43.5059 120.78
-108.405 43.5124 120.534
-108.01 43.5062 120.767
-107.627 43.5048 120.819
-107.252 43.5069 120.741
-106.888 43.5134 120.498
-106.536 43.5245 120.079
-106.178 43.5335 119.738
-105.815 43.5406 119.472
-105.446 43.5452 119.3
-105.077 43.5498 119.125
-104.72 43.5594 118.765
-104.367 43.5709 118.33
-104.012 43.5815 117.932
-103.647 43.5879 117.689
-103.283 43.5948 117.431
-102.913 43.5993 117.26
-102.544 43.6043 117.074
-102.194 43.6174 116.58
-101.856 43.6356 115.892
-101.511 43.6511 115.309
-101.154 43.6613 114.925
-100.769 43.6598 114.981
-100.383 43.6576 115.064
-100.01 43.6609 114.938
-99.6594 43.6744 114.429
-99.3015 43.6847 114.042
-98.9329 43.6903 113.831
-98.5849 43.7051 113.274
-98.2523 43.7269 112.454
-97.8975 43.7389 112.001
-97.5522 43.7552 111.385
-97.2112 43.7737 110.69
-144.621 43.4006 110.349
-144.134 43.3691 111.545
-143.72 43.3594 111.913
-143.286 43.3436 112.513
-142.854 43.3285 113.089
-142.449 43.3212 113.364
-142.01 43.3038 114.028
-141.565 43.2842 114.773
-141.135 43.2692 115.342
-140.725 43.2604 115.678
-140.32 43.253 115.958
-139.914 43.2453 116.251
-139.515 43.2396 116.468
-139.106 43.2307 116.806
-138.688 43.2192 117.241
-138.28 43.2107 117.567
-137.862 43.1987 118.02
-137.434 43.1839 118.584
-137.004 43.1682 119.18
-136.599 43.1601 119.487
-136.211 43.1576 119.583
-135.829 43.157 119.607
-135.441 43.1545 119.702
-135.038 43.1473 119.977
-134.639 43.1412 120.208
-134.234 43.1331 120.516
-133.84 43.1285 120.688
-133.443 43.123 120.899
-133.03 43.112 121.317
-132.621 43.1027 121.672
-132.238 43.1014 121.721
-131.845 43.0972 121.878
-131.442 43.0893 122.18
-131.056 43.0871 122.263
-130.678 43.0876 122.243
-130.292 43.0854 122.328
-129.904 43.0826 122.436
-129.515 43.0796 122.549
-129.127 43.0766 122.661
-128.732 43.0714 122.859
-128.327 43.0626 123.195
-127.927 43.0558 123.452
-127.542 43.0536 123.537
-127.172 43.0569 123.412
-126.81 43.0626 123.196
-126.423 43.0598 123.3
-126.037 43.0577 123.382
-125.662 43.0591 123.326
-125.286 43.0601 123.289
-124.9 43.0579 123.374
-124.502 43.0511 123.631
-124.1 43.0434 123.925
-123.715 43.0411 124.011
-123.34 43.0425 123.957
-122.962 43.0431 123.937
-122.597 43.048 123.749
-122.221 43.049 123.713
-121.842 43.0491 123.707
-121.449 43.0442 123.893
-121.06 43.0406 124.032
-120.671 43.037 124.169
-120.293 43.0374 124.154
-119.928 43.0425 123.958
-119.564 43.0477 123.762
-119.188 43.049 123.711
-118.802 43.0465 123.807
-118.417 43.0443 123.89
-118.044 43.0465 123.806
-117.68 43.052 123.596
-117.299 43.0512 123.628
-116.912 43.0481 123.744
-116.54 43.0509 123.638
-116.174 43.0558 123.452
-115.797 43.0566 123.422
-115.425 43.0591 123.328
-115.065 43.0665 123.047
-114.692 43.0686 122.966
-114.312 43.0683 122.979
-113.936 43.0697 122.926
-113.559 43.0705 122.896
-113.187 43.0734 122.783
-112.823 43.0793 122.559
-112.452 43.0825 122.437
-112.07 43.0815 122.477
-111.697 43.0836 122.395
-111.326 43.0869 122.271
-110.954 43.0899 122.159
-110.599 43.0995 121.79
-110.242 43.1084 121.455
-109.874 43.1129 121.282
-109.504 43.1165 121.145
-109.137 43.1217 120.947
-108.773 43.1277 120.72
-108.399 43.1303 120.622
-108.006 43.125 120.822
-107.654 43.1361 120.4
-107.275 43.1365 120.387
-106.896 43.1366 120.383
-106.543 43.1474 119.972
-106.191 43.159 119.532
-105.833 43.168 119.188
-105.467 43.1735 118.979
-105.099 43.1787 118.781
-104.741 43.1877 118.441
-104.383 43.197 118.085
-104.032 43.2093 117.619
-103.664 43.2145 117.42
-103.294 43.2188 117.257
-102.921 43.2221 117.133
-102.556 43.2288 116.876
-102.212 43.2442 116.29
-101.875 43.2626 115.593
-101.521 43.2744 115.144
-101.16 43.283 114.817
-100.774 43.2807 114.906
-100.385 43.2775 115.026
-100.02 43.2844 114.766
-99.6735 43.2993 114.197
-99.3208 43.3118 113.721
-98.961 43.3213 113.362
-98.6142 43.3365 112.783
-98.2701 43.3531 112.155
-97.9186 43.3665 111.645
-97.5898 43.3901 110.748
-97.2752 43.4202 109.603
-144.674 43.0342 109.743
-144.173 42.9987 111.102
-143.738 42.9829 111.711
-143.309 42.9687 112.254
-142.892 42.9581 112.659
-142.489 42.9519 112.9
-142.056 42.9363 113.498
-141.578 42.907 114.622
-141.128 42.8862 115.419
-140.741 42.8844 115.488
-140.355 42.8828 115.55
-139.944 42.8735 115.904
-139.528 42.8627 116.32
-139.112 42.8519 116.734
-138.703 42.8432 117.068
-138.3 42.8362 117.334
-137.884 42.8251 117.759
-137.459 42.8115 118.284
-137.043 42.8001 118.718
-136.633 42.7909 119.074
-136.229 42.7833 119.364
-135.846 42.7824 119.397
-135.471 42.7842 119.329
-135.065 42.7758 119.651
-134.666 42.77 119.876
-134.273 42.7657 120.038
-133.882 42.762 120.18
-133.484 42.7564 120.395
-133.067 42.7444 120.856
-132.666 42.7375 121.12
-132.285 42.7373 121.128
-131.89 42.7322 121.323
-131.489 42.7252 121.593
-131.102 42.7228 121.685
-130.71 42.7188 121.839
-130.31 42.712 122.096
-129.919 42.7083 122.24
-129.537 42.7074 122.273
-129.153 42.7059 122.332
-128.753 42.699 122.597
-128.351 42.6913 122.891
-127.964 42.6889 122.982
-127.589 42.6904 122.925
-127.21 42.6905 122.924
-126.839 42.6931 122.823
-126.444 42.688 123.017
-126.054 42.6841 123.168
-125.673 42.6836 123.187
-125.295 42.6842 123.165
-124.911 42.6825 123.231
-124.516 42.6772 123.434
-124.122 42.6719 123.635
-123.735 42.6691 123.744
-123.35 42.667 123.826
-122.974 42.6681 123.781
-122.596 42.6684 123.77
-122.219 42.6691 123.742
-121.85 42.6729 123.597
-121.457 42.6678 123.791
-121.066 42.6635 123.957
-120.697 42.6674 123.809
-120.325 42.6697 123.718
-119.949 42.671 123.671
-119.569 42.6707 123.683
-119.196 42.6725 123.611
-118.822 42.6747 123.529
-118.439 42.6732 123.587
-118.074 42.6783 123.39
-117.691 42.6769 123.446
-117.311 42.6765 123.458
-116.933 42.6771 123.438
-116.557 42.6781 123.397
-116.187 42.6814 123.271
-115.811 42.6826 123.225
-115.439 42.6854 123.118
-115.077 42.6917 122.875
-114.708 42.6956 122.727
-114.331 42.6963 122.7
-113.945 42.6939 122.792
-113.566 42.6941 122.786
-113.203 42.7 122.559
-112.841 42.7065 122.311
-112.456 42.7047 122.38
-112.082 42.7066 122.304
-111.714 42.7111 122.133
-111.335 42.7112 122.129
-110.958 42.712 122.099
-110.611 42.7247 121.609
-110.256 42.7341 121.249
-109.882 42.7364 121.164
-109.509 42.7387 121.074
-109.146 42.7456 120.809
-108.781 42.7513 120.591
-108.416 42.7572 120.366
-108.038 42.7578 120.34
-107.678 42.7656 120.043
-107.298 42.7656 120.044
-106.917 42.765 120.064
-106.566 42.7767 119.618
-106.216 42.7891 119.142
-105.858 42.798 118.799
-105.491 42.8034 118.594
-105.117 42.8058 118.5
-104.761 42.8156 118.124
-104.394 42.8212 117.912
-104.037 42.8307 117.545
-103.663 42.8335 117.44
-103.3 42.8407 117.162
-102.938 42.8484 116.867
-102.582 42.859 116.462
-102.238 42.8743 115.873
-101.892 42.8889 115.316
-101.532 42.898 114.967
-101.157 42.9006 114.867
-100.777 42.9007 114.863
-100.399 42.9023 114.799
-100.043 42.9129 114.393
-99.6961 42.9278 113.823
-99.3373 42.9375 113.449
-98.9759 42.9463 113.115
-98.6304 42.962 112.512
-98.2942 42.9818 111.751
-97.9498 42.9983 111.12
-97.6262 43.024 110.133
-144.218 42.6301 110.585
-143.755 42.6063 111.508
-143.328 42.5926 112.035
-142.927 42.587 112.254
-142.532 42.583 112.407
-142.097 42.5671 113.024
-141.612 42.5361 114.222
-141.155 42.5133 115.103
-140.76 42.5091 115.267
-140.38 42.5094 115.257
-139.974 42.5019 115.547
-139.548 42.4882 116.077
-139.135 42.4782 116.461
-138.738 42.4733 116.654
-138.338 42.4673 116.884
-137.929 42.4585 117.225
-137.499 42.4434 117.81
-137.092 42.4351 118.131
-136.682 42.4258 118.49
-136.28 42.4192 118.745
-135.887 42.415 118.907
-135.486 42.4086 119.157
-135.073 42.3984 119.548
-134.679 42.394 119.72
-134.288 42.3904 119.861
-133.905 42.3895 119.894
-133.512 42.3853 120.056
-133.095 42.3736 120.511
-132.691 42.366 120.803
-132.306 42.3642 120.874
-131.913 42.3598 121.045
-131.518 42.355 121.228
-131.127 42.3513 121.371
-130.723 42.3433 121.68
-130.319 42.3354 121.988
-129.937 42.3346 122.019
-129.562 42.3362 121.955
-129.173 42.3331 122.075
-128.784 42.3298 122.205
-128.391 42.3253 122.379
-128.002 42.3222 122.497
-127.626 42.3233 122.457
-127.238 42.3205 122.563
-126.853 42.3187 122.633
-126.455 42.3124 122.879
-126.068 42.3096 122.986
-125.69 42.3101 122.966
-125.318 42.3126 122.869
-124.939 42.3127 122.865
-124.547 42.3083 123.035
-124.158 42.3051 123.162
-123.764 42.3 123.356
-123.365 42.2932 123.621
-122.986 42.2932 123.622
-122.603 42.292 123.668
-122.23 42.294 123.591
-121.856 42.2958 123.518
-121.462 42.2907 123.717
-121.079 42.2892 123.775
-120.715 42.2946 123.568
-120.341 42.2963 123.5
-119.954 42.2936 123.605
-119.568 42.2912 123.698
-119.199 42.2945 123.569
-118.824 42.2962 123.506
-118.457 42.3005 123.338
-118.087 42.3037 123.215
-117.701 42.3013 123.306
-117.308 42.2963 123.5
-116.954 42.3053 123.151
-116.578 42.3064 123.109
-116.203 42.3081 123.043
-115.823 42.3079 123.051
-115.447 42.309 123.01
-115.079 42.3129 122.857
-114.707 42.3157 122.748
-114.33 42.3166 122.717
-113.955 42.3183 122.65
-113.584 42.3213 122.532
-113.222 42.3278 122.282
-112.855 42.3326 122.095
-112.483 42.3352 121.994
-112.121 42.3419 121.736
-111.743 42.3424 121.716
-111.356 42.3397 121.822
-110.976 42.3393 121.836
-110.625 42.3504 121.409
-110.266 42.3582 121.106
-109.896 42.362 120.959
-109.529 42.367 120.765
-109.164 42.3725 120.553
-108.797 42.3775 120.358
-108.435 42.3848 120.076
-108.067 42.3895 119.895
-107.697 42.3931 119.756
-107.32 42.3946 119.698
-106.947 42.3971 119.599
-106.596 42.4086 119.154
-106.242 42.4193 118.741
-105.875 42.4244 118.545
-105.488 42.422 118.639
-105.116 42.4251 118.516
-104.77 42.439 117.981
-104.397 42.4421 117.858
-104.031 42.4479 117.636
-103.655 42.4499 117.559
-103.304 42.4618 117.098
-102.95 42.4729 116.666
-102.599 42.4852 116.193
-102.253 42.4996 115.635
-101.898 42.5106 115.209
-101.541 42.5203 114.833
-101.164 42.5222 114.761
-100.792 42.5263 114.602
-100.427 42.533 114.342
-100.069 42.543 113.956
-99.7161 42.555 113.492
-99.3473 42.5604 113.283
-98.9879 42.5699 112.915
-98.6562 42.5914 112.081
-98.3132 42.6082 111.431
-97.9789 42.6289 110.63
-143.768 42.2282 111.358
-143.361 42.2208 111.647
-142.963 42.216 111.836
-142.545 42.2052 112.254
-142.12 42.1924 112.755
-141.712 42.1844 113.066
-141.209 42.1483 114.478
-140.795 42.1386 114.858
-140.398 42.1335 115.053
-140 42.1286 115.248
-139.583 42.1178 115.67
-139.167 42.1072 116.083
-138.776 42.1039 116.209
-138.384 42.1007 116.335
-137.977 42.0928 116.644
-137.538 42.0747 117.35
-137.126 42.0652 117.722
-136.732 42.061 117.887
-136.327 42.0536 118.175
-135.917 42.0442 118.543
-135.504 42.0342 118.932
-135.08 42.0205 119.465
-134.69 42.0172 119.594
-134.3 42.0144 119.705
-133.918 42.0135 119.739
-133.517 42.0071 119.988
-133.099 41.9949 120.465
-132.7 41.9889 120.701
-132.316 41.9878 120.745
-131.928 41.985 120.852
-131.541 41.9827 120.943
-131.144 41.9772 121.158
-130.732 41.9669 121.559
-130.333 41.9605 121.807
-129.958 41.9619 121.756
-129.585 41.9641 121.67
-129.187 41.9581 121.902
-128.798 41.9549 122.029
-128.415 41.954 122.063
-128.029 41.9517 122.153
-127.646 41.9504 122.203
-127.256 41.9471 122.332
-126.866 41.9435 122.475
-126.469 41.9377 122.697
-126.083 41.9353 122.791
-125.705 41.936 122.765
-125.339 41.9403 122.599
-124.965 41.942 122.53
-124.577 41.9392 122.642
-124.18 41.9332 122.873
-123.783 41.9272 123.109
-123.385 41.9208 123.36
-123.005 41.9205 123.37
-122.629 41.9218 123.321
-122.26 41.9252 123.188
-121.864 41.9193 123.416
-121.478 41.9169 123.512
-121.109 41.9205 123.37
-120.74 41.9242 123.226
-120.358 41.9231 123.271
-119.969 41.9197 123.401
-119.594 41.921 123.351
-119.227 41.9252 123.186
-118.853 41.9273 123.105
-118.479 41.9291 123.037
-118.093 41.9265 123.135
-117.71 41.9253 123.183
-117.333 41.9262 123.149
-116.965 41.9301 122.995
-116.591 41.9319 122.926
-116.218 41.9344 122.829
-115.838 41.9339 122.848
-115.466 41.9368 122.736
-115.098 41.9406 122.584
-114.72 41.9414 122.556
-114.347 41.9437 122.466
-113.98 41.9482 122.288
-113.614 41.953 122.102
-113.245 41.9568 121.954
-112.874 41.9601 121.826
-112.507 41.9646 121.648
-112.141 41.97 121.439
-111.764 41.9706 121.413
-111.381 41.9695 121.456
-111.006 41.9711 121.394
-110.645 41.9784 121.111
-110.28 41.9841 120.89
-109.919 41.991 120.617
-109.553 41.9964 120.407
-109.176 41.9975 120.363
-108.812 42.0036 120.126
-108.453 42.0118 119.806
-108.095 42.0201 119.483
-107.72 42.0222 119.402
-107.346 42.0247 119.301
-106.977 42.0288 119.142
-106.619 42.0378 118.791
-106.256 42.0444 118.532
-105.875 42.0441 118.544
-105.491 42.0427 118.601
-105.132 42.0511 118.271
-104.778 42.0618 117.854
-104.416 42.0692 117.565
-104.043 42.0724 117.442
-103.67 42.0751 117.333
-103.318 42.0868 116.877
-102.963 42.0976 116.456
-102.612 42.1098 115.979
-102.259 42.1211 115.541
-101.901 42.1307 115.164
-101.535 42.1369 114.924
-101.177 42.1464 114.551
-100.817 42.1552 114.208
-100.46 42.1657 113.799
-100.102 42.1752 113.426
-99.7381 42.1828 113.13
-99.3682 42.1878 112.937
-99.0243 42.2038 112.309
-98.6738 42.2172 111.788
-98.3238 42.2309 111.253
-98.0399 42.2731 109.604
-143.839 41.8669 110.544
-143.414 41.8543 111.042
-142.98 41.839 111.643
-142.545 41.8235 112.254
-142.157 41.8215 112.333
-141.684 41.7948 113.385
-141.247 41.7783 114.033
-140.826 41.7664 114.504
-140.418 41.7587 114.808
-140.015 41.7519 115.074
-139.604 41.7431 115.422
-139.196 41.7349 115.746
-138.803 41.7313 115.886
-138.415 41.7293 115.966
-138.018 41.7243 116.164
-137.576 41.7058 116.892
-137.161 41.6952 117.307
-136.759 41.6889 117.558
-136.36 41.6831 117.787
-135.951 41.6743 118.133
-135.532 41.6626 118.595
-135.115 41.6511 119.046
-134.714 41.6448 119.295
-134.314 41.6388 119.533
-133.924 41.6356 119.656
-133.523 41.6288 119.923
-133.113 41.6196 120.287
-132.72 41.6155 120.448
-132.33 41.6122 120.58
-131.939 41.6088 120.713
-131.556 41.6077 120.755
-131.167 41.6047 120.874
-130.758 41.5956 121.234
-130.366 41.5914 121.398
-129.981 41.5899 121.458
-129.6 41.5894 121.475
-129.21 41.5861 121.609
-128.807 41.5784 121.911
-128.421 41.5764 121.991
-128.036 41.5745 122.066
-127.657 41.5748 122.051
-127.272 41.5727 122.134
-126.88 41.5687 122.294
-126.485 41.5636 122.495
-126.098 41.5612 122.587
-125.726 41.5635 122.497
-125.363 41.5689 122.286
-124.98 41.5679 122.325
-124.579 41.5605 122.616
-124.193 41.5584 122.698
-123.8 41.5536 122.886
-123.408 41.5494 123.053
-123.027 41.5489 123.074
-122.656 41.5516 122.967
-122.275 41.5511 122.987
-121.873 41.5433 123.294
-121.498 41.5447 123.24
-121.133 41.5495 123.05
-120.759 41.5516 122.968
-120.38 41.5516 122.968
-120.003 41.5521 122.945
-119.629 41.554 122.873
-119.246 41.5527 122.922
-118.863 41.5515 122.971
-118.484 41.5515 122.97
-118.106 41.5519 122.954
-117.732 41.5538 122.879
-117.359 41.556 122.794
-116.992 41.5604 122.619
-116.623 41.5642 122.471
-116.246 41.5651 122.433
-115.864 41.564 122.48
-115.496 41.5681 122.316
-115.124 41.5706 122.217
-114.747 41.5716 122.179
-114.379 41.5757 122.017
-114.01 41.5795 121.866
-113.638 41.5823 121.759
-113.268 41.586 121.613
-112.895 41.5882 121.525
-112.521 41.5903 121.444
-112.151 41.5938 121.302
-111.777 41.5959 121.223
-111.4 41.5969 121.182
-111.03 41.6007 121.034
-110.662 41.6052 120.853
-110.304 41.6131 120.542
-109.946 41.6216 120.209
-109.57 41.6232 120.147
-109.185 41.6211 120.23
-108.823 41.6277 119.967
-108.475 41.6402 119.474
-108.116 41.6483 119.159
-107.736 41.6485 119.15
-107.367 41.6525 118.991
-106.997 41.6565 118.833
-106.632 41.6624 118.601
-106.264 41.6675 118.401
-105.889 41.6693 118.329
-105.525 41.6759 118.07
-105.182 41.6908 117.481
-104.806 41.6923 117.422
-104.442 41.6992 117.152
-104.07 41.7024 117.024
-103.696 41.7053 116.911
-103.33 41.7113 116.676
-102.971 41.7197 116.342
-102.617 41.7308 115.906
-102.263 41.7416 115.48
-101.907 41.7519 115.075
-101.546 41.7601 114.752
-101.196 41.7733 114.232
-100.842 41.7845 113.79
-100.482 41.7934 113.441
-100.113 41.7983 113.246
-99.748 41.8055 112.965
-99.4061 41.8221 112.309
-99.056 41.8355 111.783
-98.6888 41.8417 111.537
-98.3558 41.8625 110.718
-143.474 41.4896 110.354
-143.028 41.4711 111.09
-142.595 41.4562 111.679
-142.17 41.4438 112.174
-141.729 41.4265 112.861
-141.294 41.4107 113.488
-140.87 41.3982 113.988
-140.461 41.3902 114.305
-140.048 41.3806 114.687
-139.634 41.371 115.067
-139.225 41.3625 115.404
-138.824 41.3567 115.639
-138.437 41.355 115.705
-138.047 41.3521 115.819
-137.614 41.3367 116.433
-137.194 41.3248 116.905
-136.781 41.315 117.294
-136.374 41.307 117.613
-135.98 41.3028 117.779
-135.57 41.294 118.13
-135.156 41.2836 118.542
-134.742 41.2733 118.951
-134.325 41.2619 119.405
-133.931 41.2576 119.576
-133.538 41.2537 119.734
-133.143 41.2491 119.913
-132.753 41.2458 120.048
-132.35 41.2386 120.332
-131.949 41.2322 120.587
-131.567 41.2313 120.621
-131.179 41.229 120.716
-130.785 41.2244 120.899
-130.398 41.2221 120.989
-130.003 41.2171 121.185
-129.618 41.2156 121.245
-129.23 41.2127 121.363
-128.814 41.2011 121.823
-128.412 41.194 122.107
-128.031 41.1936 122.124
-127.662 41.1967 121.998
-127.276 41.1947 122.076
-126.884 41.1907 122.239
-126.496 41.1877 122.355
-126.118 41.1884 122.327
-125.75 41.1921 122.183
-125.371 41.1922 122.179
-124.974 41.1865 122.403
-124.582 41.1821 122.579
-124.206 41.1835 122.525
-123.821 41.1814 122.605
-123.433 41.1787 122.715
-123.052 41.178 122.743
-122.675 41.1789 122.705
-122.284 41.1748 122.868
-121.893 41.1709 123.025
-121.526 41.1751 122.856
-121.152 41.1768 122.788
-120.771 41.1762 122.813
-120.398 41.1782 122.732
-120.03 41.1823 122.57
-119.653 41.1829 122.546
-119.256 41.1771 122.778
-118.872 41.1754 122.845
-118.492 41.1749 122.864
-118.121 41.1782 122.736
-117.753 41.1818 122.59
-117.384 41.1857 122.438
-117.021 41.1913 122.215
-116.65 41.1941 122.1
-116.27 41.1941 122.101
-115.891 41.1941 122.102
-115.52 41.1972 121.979
-115.146 41.1992 121.899
-114.772 41.2011 121.822
-114.402 41.2048 121.677
-114.033 41.2085 121.528
-113.661 41.2113 121.419
-113.291 41.2145 121.289
-112.915 41.2159 121.236
-112.534 41.2155 121.251
-112.159 41.2171 121.188
-111.786 41.2199 121.078
-111.414 41.2226 120.97
-111.048 41.2276 120.769
-110.684 41.2336 120.531
-110.331 41.2436 120.133
-109.968 41.2498 119.887
-109.579 41.2466 120.013
-109.196 41.2453 120.067
-108.839 41.2539 119.723
-108.493 41.2669 119.206
-108.128 41.2729 118.969
-107.749 41.273 118.965
-107.383 41.2787 118.737
-107.012 41.2822 118.599
-106.648 41.2887 118.342
-106.283 41.2943 118.116
-105.911 41.2977 117.981
-105.551 41.3058 117.659
-105.215 41.3232 116.968
-104.843 41.3266 116.832
-104.475 41.3317 116.632
-104.107 41.3367 116.431
-103.726 41.3365 116.438
-103.342 41.3353 116.488
-102.977 41.3416 116.238
-102.624 41.3528 115.793
-102.279 41.3672 115.219
-101.927 41.3792 114.743
-101.565 41.387 114.431
-101.222 41.4024 113.82
-100.867 41.4132 113.389
-100.5 41.4192 113.152
-100.142 41.4291 112.759
-99.8128 41.4508 111.895
-99.5 41.4795 110.752
-99.1034 41.4735 110.994
-98.7393 41.481 110.694
-143.097 41.109 110.289
-142.662 41.0937 110.905
-142.219 41.0761 111.61
-141.786 41.0614 112.199
-141.352 41.0461 112.812
-140.936 41.0361 113.213
-140.523 41.0269 113.585
-140.103 41.0158 114.031
-139.678 41.0027 114.555
-139.256 40.9907 115.035
-138.848 40.983 115.347
-138.458 40.9802 115.459
-138.069 40.9777 115.558
-137.642 40.9641 116.104
-137.213 40.9497 116.681
-136.789 40.9369 117.195
-136.38 40.9283 117.54
-135.997 40.9275 117.572
-135.605 40.924 117.715
-135.201 40.917 117.995
-134.784 40.9058 118.443
-134.358 40.8918 119.004
-133.957 40.8855 119.259
-133.563 40.8814 119.422
-133.178 40.8797 119.49
-132.787 40.8765 119.621
-132.369 40.8648 120.088
-131.966 40.8575 120.383
-131.581 40.856 120.444
-131.201 40.8558 120.45
-130.807 40.8513 120.631
-130.42 40.8491 120.721
-130.027 40.8452 120.876
-129.641 40.843 120.962
-129.249 40.8391 121.119
-128.828 40.8261 121.643
-128.421 40.8173 121.997
-128.051 40.8205 121.865
-127.682 40.8236 121.741
-127.29 40.8197 121.901
-126.896 40.8152 122.081
-126.517 40.8153 122.076
-126.145 40.8175 121.986
-125.762 40.8166 122.025
-125.371 40.8127 122.181
-124.974 40.8071 122.404
-124.589 40.8053 122.476
-124.211 40.8056 122.465
-123.837 40.8074 122.391
-123.461 40.8085 122.348
-123.081 40.8082 122.36
-122.698 40.8072 122.4
-122.311 40.8045 122.508
-121.932 40.8046 122.506
-121.564 40.8085 122.35
-121.174 40.8049 122.492
-120.782 40.8008 122.656
-120.413 40.8041 122.526
-120.048 40.8092 122.321
-119.661 40.8064 122.432
-119.27 40.8024 122.594
-118.888 40.8015 122.628
-118.508 40.8013 122.639
-118.137 40.8041 122.524
-117.771 40.8088 122.336
-117.402 40.8123 122.196
-117.032 40.8158 122.056
-116.652 40.8155 122.068
-116.283 40.8194 121.912
-115.913 40.8226 121.784
-115.541 40.8251 121.681
-115.164 40.8261 121.64
-114.786 40.8265 121.625
-114.414 40.8294 121.509
-114.052 40.8356 121.26
-113.681 40.8389 121.129
-113.312 40.8427 120.976
-112.935 40.8435 120.942
-112.549 40.8412 121.036
-112.168 40.8409 121.05
-111.796 40.8437 120.937
-111.429 40.8485 120.743
-111.069 40.8554 120.465
-110.716 40.8653 120.067
-110.357 40.8734 119.743
-109.986 40.8767 119.611
-109.593 40.8716 119.814
-109.212 40.8712 119.832
-108.858 40.8811 119.437
-108.504 40.891 119.037
-108.136 40.8957 118.849
-107.762 40.8978 118.764
-107.395 40.903 118.557
-107.027 40.9076 118.372
-106.663 40.9139 118.119
-106.299 40.9202 117.868
-105.925 40.9228 117.763
-105.565 40.9308 117.441
-105.227 40.9473 116.777
-104.887 40.963 116.149
-104.512 40.9655 116.049
-104.143 40.9699 115.873
-103.747 40.9642 116.099
-103.358 40.9609 116.231
-102.992 40.9666 116.004
-102.641 40.9785 115.528
-102.298 40.9937 114.918
-101.95 41.0073 114.369
-101.584 41.0133 114.132
-101.237 41.0273 113.567
-100.897 41.0441 112.895
-100.551 41.0585 112.316
-100.216 41.0779 111.536
-99.899 41.1044 110.473
-99.5498 41.118 109.927
-99.1688 41.1186 109.905
-142.707 40.7245 110.385
-142.295 40.716 110.726
-141.839 40.6947 111.592
-141.409 40.6809 112.151
-140.997 40.6721 112.505
-140.584 40.6632 112.864
-140.159 40.6506 113.378
-139.733 40.6375 113.906
-139.293 40.6204 114.6
-138.877 40.6103 115.01
-138.485 40.6071 115.137
-138.09 40.6031 115.299
-137.659 40.5883 115.899
-137.224 40.5723 116.547
-136.798 40.559 117.087
-136.403 40.5546 117.264
-136.018 40.5533 117.317
-135.629 40.5508 117.418
-135.235 40.5467 117.586
-134.82 40.5364 118.004
-134.399 40.5241 118.5
-133.987 40.5144 118.894
-133.593 40.5103 119.059
-133.213 40.5103 119.058
-132.807 40.5025 119.375
-132.393 40.4921 119.796
-131.993 40.486 120.042
-131.611 40.4853 120.073
-131.225 40.4833 120.153
-130.827 40.4778 120.377
-130.442 40.4762 120.439
-130.055 40.474 120.531
-129.667 40.4716 120.626
-129.27 40.4662 120.847
-128.869 40.4595 121.118
-128.467 40.4523 121.407
-128.1 40.4562 121.249
-127.721 40.4565 121.237
-127.321 40.45 121.502
-126.924 40.4445 121.723
-126.549 40.4461 121.661
-126.169 40.4459 121.667
-125.775 40.4413 121.853
-125.384 40.4376 122.003
-124.998 40.4355 122.091
-124.612 40.4334 122.173
-124.229 40.4323 122.22
-123.858 40.4348 122.119
-123.485 40.437 122.028
-123.107 40.4374 122.014
-122.722 40.4357 122.081
-122.343 40.4359 122.075
-121.971 40.4383 121.977
-121.596 40.4397 121.92
-121.2 40.4343 122.138
-120.803 40.4283 122.381
-120.429 40.43 122.311
-120.059 40.4335 122.17
-119.673 40.4311 122.268
-119.29 40.43 122.312
-118.91 40.4296 122.329
-118.527 40.4286 122.368
-118.156 40.4315 122.253
-117.793 40.437 122.028
-117.421 40.4395 121.926
-117.043 40.4401 121.904
-116.661 40.4392 121.94
-116.303 40.4465 121.643
-115.931 40.4494 121.529
-115.553 40.45 121.503
-115.18 40.4523 121.407
-114.802 40.4527 121.393
-114.427 40.4542 121.33
-114.067 40.4613 121.044
-113.704 40.4671 120.808
-113.335 40.471 120.651
-112.956 40.4715 120.63
-112.569 40.4687 120.747
-112.191 40.4693 120.72
-111.815 40.4709 120.654
-111.452 40.4771 120.406
-111.097 40.4861 120.041
-110.74 40.4944 119.702
-110.373 40.4993 119.505
-109.994 40.4995 119.498
-109.61 40.498 119.557
-109.23 40.4982 119.548
-108.878 40.5084 119.136
-108.52 40.517 118.79
-108.151 40.5211 118.623
-107.78 40.5243 118.492
-107.409 40.5278 118.35
-107.047 40.5349 118.064
-106.687 40.5428 117.743
-106.315 40.5457 117.626
-105.941 40.5485 117.514
-105.581 40.5562 117.199
-105.243 40.5727 116.533
-104.923 40.5962 115.582
-104.542 40.5962 115.581
-104.16 40.5957 115.602
-103.766 40.5907 115.804
-103.384 40.5901 115.826
-103.016 40.5953 115.616
-102.666 40.6075 115.122
-102.318 40.6207 114.587
-101.972 40.6346 114.024
-101.602 40.639 113.845
-101.253 40.6522 113.313
-100.932 40.6766 112.323
-100.598 40.6958 111.547
-100.26 40.7138 110.815
-99.9391 40.7386 109.81
-142.758 40.3568 109.793
-142.365 40.3539 109.912
-141.894 40.3284 110.951
-141.468 40.3161 111.457
-141.04 40.3028 111.998
-140.616 40.2906 112.499
-140.202 40.2815 112.869
-139.783 40.2706 113.318
-139.333 40.2508 114.127
-138.912 40.2393 114.596
-138.517 40.2353 114.76
-138.117 40.2298 114.987
-137.681 40.2137 115.641
-137.245 40.1979 116.291
-136.829 40.1875 116.716
-136.44 40.185 116.815
-136.038 40.1787 117.075
-135.642 40.1742 117.26
-135.251 40.1708 117.396
-134.838 40.1614 117.781
-134.426 40.1519 118.17
-134.023 40.1451 118.45
-133.63 40.1413 118.605
-133.225 40.1339 118.907
-132.812 40.124 119.312
-132.414 40.1184 119.542
-132.025 40.1157 119.652
-131.648 40.1167 119.608
