# .PCD v0.7 - Point Cloud Data file format
VERSION 0.7
FIELDS x y z
SIZE 4 4 4
TYPE F F F
COUNT 1 1 1
WIDTH 1939
HEIGHT 1
VIEWPOINT 0 0 0 1 0 0 0
POINTS 1939
DATA ascii
-103.096 68.9652 120.409
-102.74 68.9813 120.027
-102.377 68.993 119.747
-102.013 69.0038 119.492
-101.648 69.014 119.248
-101.283 69.0241 119.008
-100.923 69.0379 118.679
-100.565 69.0531 118.319
-100.201 69.0648 118.04
-99.8465 69.0824 117.621
-99.4787 69.0912 117.413
-99.1196 69.1062 117.057
-98.7703 69.1281 116.536
-98.4252 69.1531 115.941
-98.0794 69.1779 115.353
-97.7275 69.1985 114.862
-97.3662 69.2126 114.527
-97.0246 69.2408 113.855
-96.6798 69.2671 113.232
-96.3202 69.2828 112.859
-95.9801 69.3128 112.145
-95.6298 69.3356 111.604
-95.2713 69.3526 111.199
-94.9264 69.3797 110.554
-147.264 68.9913 110.704
-146.75 68.9292 112.189
-146.301 68.8974 112.95
-145.921 68.8985 112.924
-145.492 68.8758 113.466
-145.073 68.858 113.892
-144.624 68.826 114.655
-144.172 68.7921 115.468
-143.718 68.7573 116.299
-143.309 68.7438 116.622
-142.892 68.7263 117.04
-142.462 68.7021 117.618
-142.059 68.6914 117.873
-141.637 68.6715 118.35
-141.212 68.6496 118.873
-140.792 68.6304 119.333
-140.373 68.6109 119.798
-139.962 68.5962 120.151
-139.558 68.584 120.442
-139.145 68.5676 120.833
-138.726 68.5484 121.292
-138.316 68.5331 121.657
-137.905 68.5177 122.027
-137.513 68.5114 122.177
-137.121 68.5054 122.32
-136.72 68.4941 122.59
-136.329 68.4883 122.73
-135.935 68.4813 122.897
-135.529 68.4675 123.227
-135.123 68.454 123.549
-134.732 68.4477 123.699
-134.338 68.4403 123.876
-133.958 68.4397 123.891
-133.571 68.4358 123.984
-133.17 68.4244 124.258
-132.749 68.4028 124.773
-132.383 68.4093 124.618
-132.014 68.4147 124.487
-131.639 68.4168 124.438
-131.251 68.4116 124.562
-130.856 68.4037 124.752
-130.458 68.3933 125
-130.057 68.3816 125.28
-129.654 68.3691 125.578
-129.244 68.3522 125.982
-128.843 68.3403 126.266
-128.443 68.3292 126.532
-128.049 68.3204 126.742
-127.65 68.3099 126.994
-127.255 68.3007 127.213
-126.884 68.3047 127.119
-126.512 68.3078 127.045
-126.125 68.3034 127.15
-125.734 68.2965 127.313
-125.345 68.2902 127.464
-124.975 68.2951 127.347
-124.603 68.2986 127.265
-124.23 68.3015 127.196
-123.862 68.3068 127.068
-123.487 68.3089 127.017
-123.107 68.3077 127.047
-122.739 68.3138 126.901
-122.388 68.3288 126.542
-122.053 68.3529 125.966
-121.665 68.3479 126.086
-121.244 68.3239 126.659
-120.875 68.3292 126.531
-120.505 68.3343 126.411
-120.118 68.3291 126.534
-119.714 68.3147 126.878
-119.332 68.3127 126.927
-118.968 68.3206 126.737
-118.6 68.3269 126.588
-118.222 68.3266 126.594
-117.843 68.3264 126.6
-117.476 68.3331 126.44
-117.104 68.337 126.346
-116.722 68.3347 126.401
-116.341 68.3332 126.438
-115.963 68.3334 126.433
-115.594 68.3395 126.287
-115.211 68.3367 126.353
-114.836 68.3386 126.308
-114.469 68.3453 126.148
-114.094 68.3478 126.087
-113.724 68.3525 125.976
-113.352 68.3564 125.882
-112.975 68.3577 125.851
-112.605 68.3626 125.735
-112.24 68.3712 125.527
-111.874 68.3791 125.341
-111.508 68.3865 125.163
-111.14 68.3933 124.999
-110.762 68.394 124.984
-110.389 68.3972 124.908
-110.011 68.3979 124.89
-109.642 68.4038 124.749
-109.277 68.4127 124.536
-108.909 68.4195 124.373
-108.538 68.4246 124.253
-108.17 68.4312 124.093
-107.798 68.4359 123.981
-107.43 68.4428 123.817
-107.074 68.4576 123.462
-106.718 68.4725 123.106
-106.352 68.4812 122.899
-105.983 68.4875 122.747
-105.621 68.4985 122.486
-105.265 68.5139 122.118
-104.896 68.5205 121.96
-104.523 68.5247 121.858
-104.167 68.5403 121.486
-103.82 68.5621 120.964
-103.448 68.5671 120.845
-103.08 68.5748 120.661
-102.725 68.5918 120.255
-102.362 68.6029 119.99
-102.001 68.6158 119.681
-101.637 68.6262 119.433
-101.268 68.634 119.247
-100.905 68.6454 118.974
-100.551 68.6636 118.538
-100.2 68.6834 118.064
-99.8348 68.6939 117.814
-99.4692 68.7041 117.569
-99.1092 68.7184 117.229
-98.7576 68.7385 116.748
-98.416 68.7658 116.094
-98.0777 68.7957 115.381
-97.7274 68.8173 114.863
-97.3603 68.8272 114.627
-96.9997 68.8419 114.277
-96.6668 68.8763 113.453
-96.3126 68.8958 112.987
-95.9706 68.9242 112.31
-95.6132 68.9417 111.889
-95.2534 68.9576 111.509
-94.9098 68.9855 110.842
-94.5746 69.0197 110.026
-147.202 68.5804 111.397
-146.726 68.5364 112.455
-146.284 68.5081 113.135
-145.876 68.4955 113.437
-145.446 68.4726 113.989
-145.053 68.4673 114.117
-144.594 68.4306 114.998
-144.122 68.3873 116.039
-143.693 68.3646 116.584
-143.301 68.3589 116.721
-142.873 68.3365 117.26
-142.43 68.3064 117.983
-142.021 68.2926 118.316
-141.612 68.2791 118.64
-141.195 68.2612 119.07
-140.774 68.2411 119.553
-140.362 68.226 119.917
-139.953 68.2116 120.261
-139.545 68.1979 120.591
-139.123 68.1773 121.088
-138.717 68.1641 121.404
-138.317 68.1543 121.641
-137.909 68.1401 121.981
-137.514 68.1323 122.168
-137.115 68.1226 122.403
-136.715 68.1125 122.646
-136.317 68.1033 122.865
-135.914 68.0913 123.153
-135.521 68.0845 123.318
-135.129 68.0778 123.479
-134.735 68.0704 123.658
-134.34 68.0623 123.852
-133.946 68.0548 124.031
-133.565 68.0536 124.06
-133.156 68.0385 124.423
-132.745 68.0217 124.827
-132.373 68.0253 124.741
-131.997 68.0269 124.702
-131.626 68.0312 124.6
-131.24 68.0272 124.696
-130.83 68.0113 125.078
-130.425 67.9976 125.408
-130.044 67.9959 125.447
-129.659 67.993 125.516
-129.235 67.9689 126.097
-128.818 67.9487 126.583
-128.43 67.9437 126.704
-128.048 67.9419 126.746
-127.663 67.9382 126.834
-127.273 67.9318 126.99
-126.89 67.9295 127.045
-126.512 67.9296 127.042
-126.121 67.923 127.201
-125.726 67.914 127.416
-125.351 67.9155 127.38
-124.979 67.9189 127.298
-124.6 67.9187 127.303
-124.22 67.9174 127.334
-123.842 67.9179 127.322
-123.465 67.9183 127.314
-123.089 67.9196 127.282
-122.72 67.9244 127.166
-122.366 67.9381 126.837
-122.012 67.952 126.503
-121.63 67.9497 126.558
-121.231 67.9383 126.833
-120.859 67.9416 126.753
-120.495 67.95 126.551
-120.106 67.944 126.695
-119.699 67.9279 127.082
-119.318 67.9259 127.131
-118.953 67.9336 126.944
-118.586 67.9401 126.79
-118.206 67.939 126.814
-117.827 67.9387 126.822
-117.46 67.9456 126.656
-117.092 67.9517 126.511
-116.715 67.9523 126.495
-116.344 67.9567 126.39
-115.967 67.9574 126.374
-115.595 67.9613 126.279
-115.205 67.9543 126.448
-114.83 67.9566 126.394
-114.46 67.9614 126.276
-114.082 67.9621 126.26
-113.713 67.9678 126.123
-113.342 67.9723 126.016
-112.97 67.9762 125.921
-112.607 67.9854 125.7
-112.237 67.9904 125.58
-111.874 68 125.348
-111.516 68.0128 125.041
-111.14 68.0143 125.006
-110.752 68.009 125.132
-110.372 68.0082 125.152
-110 68.0123 125.054
-109.639 68.023 124.796
-109.274 68.0319 124.582
-108.902 68.0364 124.474
-108.534 68.043 124.315
-108.166 68.0501 124.145
-107.801 68.0586 123.941
-107.442 68.0712 123.637
-107.072 68.0772 123.494
-106.706 68.0858 123.286
-106.34 68.0939 123.092
-105.967 68.0982 122.989
-105.605 68.1094 122.72
-105.247 68.123 122.393
-104.879 68.1302 122.219
-104.513 68.1392 122.002
-104.166 68.1605 121.49
-103.812 68.1767 121.101
-103.436 68.1794 121.037
-103.072 68.1897 120.789
-102.716 68.2055 120.408
-102.349 68.214 120.205
-101.986 68.2256 119.926
-101.622 68.2359 119.678
-101.254 68.2445 119.471
-100.894 68.2578 119.151
-100.545 68.2788 118.646
-100.196 68.3006 118.124
-99.8297 68.31 117.898
-99.4653 68.3209 117.634
-99.1019 68.3327 117.351
-98.7439 68.3483 116.975
-98.4039 68.3766 116.296
-98.0691 68.4087 115.524
-97.7202 68.4311 114.986
-97.3587 68.4449 114.655
-96.9919 68.4551 114.409
-96.6565 68.4875 113.63
-96.3018 68.5065 113.173
-95.9532 68.5301 112.607
-95.5939 68.546 112.223
-95.24 68.5661 111.74
-94.8993 68.5958 111.026
-94.5697 68.6339 110.111
-147.741 68.271 109.644
-147.197 68.1961 111.454
-146.735 68.1589 112.354
-146.288 68.1285 113.088
-145.858 68.1059 113.636
-145.437 68.087 114.091
-145.04 68.0796 114.27
-144.575 68.0406 115.213
-144.124 68.0074 116.017
-143.696 67.9853 116.551
-143.28 67.9683 116.961
-142.854 67.9469 117.479
-142.417 67.92 118.13
-141.999 67.902 118.564
-141.593 67.8898 118.86
-141.175 67.8712 119.309
-140.754 67.8518 119.777
-140.355 67.8422 120.008
-139.952 67.8314 120.27
-139.545 67.8182 120.589
-139.121 67.7968 121.107
-138.72 67.7861 121.365
-138.316 67.7743 121.65
-137.902 67.7574 122.059
-137.501 67.7466 122.32
-137.101 67.7363 122.57
-136.706 67.729 122.747
-136.31 67.7203 122.957
-135.912 67.711 123.181
-135.518 67.7038 123.355
-135.131 67.6999 123.45
-134.736 67.6918 123.646
-134.341 67.6837 123.841
-133.94 67.6727 124.106
-133.551 67.6676 124.229
-133.15 67.6562 124.505
-132.741 67.6413 124.867
-132.361 67.6406 124.883
-131.977 67.638 124.945
-131.595 67.636 124.993
-131.207 67.6313 125.107
-130.809 67.6217 125.339
-130.41 67.6109 125.6
-130.029 67.6099 125.625
-129.636 67.602 125.816
-129.213 67.5792 126.367
-128.782 67.5514 127.038
-128.413 67.5565 126.915
-128.045 67.562 126.782
-127.658 67.5573 126.896
-127.267 67.5503 127.066
-126.886 67.5492 127.093
-126.507 67.5485 127.108
-126.125 67.5468 127.151
-125.738 67.5421 127.265
-125.362 67.5431 127.24
-124.987 67.5449 127.195
-124.603 67.5421 127.264
-124.212 67.5347 127.443
-123.828 67.532 127.507
-123.456 67.535 127.434
-123.082 67.5375 127.376
-122.707 67.5393 127.331
-122.341 67.5458 127.174
-121.971 67.5506 127.058
-121.597 67.5528 127.006
-121.214 67.5506 127.058
-120.843 67.5543 126.968
-120.479 67.5624 126.772
-120.094 67.5587 126.862
-119.69 67.5442 127.213
-119.307 67.5418 127.271
-118.937 67.5462 127.166
-118.567 67.5509 127.051
-118.191 67.5522 127.019
-117.819 67.5561 126.926
-117.45 67.5613 126.799
-117.078 67.5653 126.704
-116.705 67.5684 126.628
-116.336 67.5735 126.505
-115.957 67.5733 126.509
-115.584 67.5767 126.427
-115.208 67.5778 126.401
-114.83 67.578 126.396
-114.452 67.5787 126.38
-114.077 67.5806 126.332
-113.711 67.5876 126.163
-113.34 67.5924 126.048
-112.972 67.5988 125.892
-112.611 67.609 125.647
-112.235 67.6109 125.602
-111.868 67.6176 125.44
-111.506 67.6279 125.19
-111.135 67.6328 125.071
-110.743 67.6246 125.27
-110.364 67.6246 125.269
-109.996 67.6308 125.12
-109.638 67.6436 124.81
-109.272 67.6516 124.616
-108.901 67.6569 124.489
-108.531 67.662 124.366
-108.164 67.6696 124.181
-107.805 67.6822 123.878
-107.451 67.6979 123.497
-107.071 67.6972 123.514
-106.693 67.6983 123.487
-106.328 67.7074 123.268
-105.961 67.7145 123.095
-105.598 67.725 122.842
-105.236 67.7361 122.573
-104.87 67.7447 122.365
-104.51 67.7575 122.058
-104.15 67.7702 121.75
-103.791 67.784 121.417
-103.424 67.7922 121.219
-103.071 67.8096 120.798
-102.711 67.8228 120.478
-102.34 67.8285 120.341
-101.973 67.8372 120.131
-101.611 67.8489 119.848
-101.248 67.8605 119.566
-100.89 67.875 119.217
-100.539 67.8945 118.744
-100.184 67.9116 118.331
-99.8113 67.917 118.201
-99.4471 67.928 117.935
-99.0906 67.9444 117.538
-98.7345 67.9612 117.132
-98.3985 67.992 116.387
-98.0628 68.0233 115.631
-97.711 68.0436 115.141
-97.354 68.0604 114.734
-96.996 68.0767 114.341
-96.6476 68.0998 113.782
-96.2939 68.1195 113.307
-95.9399 68.139 112.835
-95.5796 68.1541 112.469
-95.2264 68.1746 111.975
-94.888 68.2057 111.222
-94.5668 68.2496 110.162
-147.687 67.8639 110.246
-147.193 67.8121 111.505
-146.721 67.7707 112.511
-146.274 67.7402 113.254
-145.842 67.7168 113.822
-145.462 67.7175 113.803
-145.05 67.7035 114.146
-144.573 67.6586 115.236
-144.126 67.6276 115.99
-143.697 67.6046 116.548
-143.262 67.5793 117.164
-142.842 67.5604 117.624
-142.409 67.5356 118.227
-141.976 67.5107 118.831
-141.577 67.5019 119.046
-141.164 67.486 119.431
-140.751 67.4703 119.815
-140.353 67.4617 120.023
-139.955 67.4527 120.241
-139.547 67.4395 120.563
-139.126 67.4192 121.057
-138.715 67.4041 121.424
-138.296 67.3849 121.89
-137.889 67.3716 122.213
-137.491 67.3623 122.44
-137.097 67.3553 122.609
-136.707 67.3501 122.735
-136.317 67.3445 122.873
-135.914 67.3329 123.155
-135.517 67.3241 123.368
-135.132 67.3211 123.44
-134.742 67.3158 123.57
-134.337 67.303 123.882
-133.927 67.2871 124.268
-133.528 67.2769 124.514
-133.137 67.2708 124.665
-132.732 67.2578 124.981
-132.345 67.2535 125.083
-131.957 67.2487 125.202
-131.562 67.2404 125.403
-131.179 67.2383 125.453
-130.796 67.2362 125.504
-130.394 67.2241 125.799
-130.008 67.2203 125.891
-129.624 67.2176 125.956
-129.178 67.1823 126.814
-128.777 67.1705 127.101
-128.401 67.1716 127.075
-128.022 67.1713 127.082
-127.635 67.1669 127.188
-127.257 67.1667 127.194
-126.875 67.1647 127.242
-126.491 67.1621 127.306
-126.123 67.1676 127.173
-125.745 67.1673 127.18
-125.364 67.1662 127.206
-124.985 67.1655 127.223
-124.595 67.1593 127.374
-124.2 67.1503 127.593
-123.828 67.1535 127.516
-123.462 67.16 127.358
-123.082 67.1593 127.373
-122.699 67.1567 127.438
-122.32 67.1564 127.444
-121.941 67.1558 127.459
-121.568 67.1588 127.386
-121.191 67.1595 127.368
-120.829 67.1686 127.147
-120.463 67.1752 126.989
-120.074 67.1694 127.128
-119.679 67.1596 127.367
-119.301 67.1602 127.353
-118.927 67.1624 127.299
-118.557 67.1673 127.179
-118.184 67.1701 127.112
-117.811 67.173 127.042
-117.444 67.1796 126.88
-117.07 67.1821 126.821
-116.694 67.1833 126.79
-116.321 67.1862 126.719
-115.941 67.1856 126.734
-115.568 67.1885 126.664
-115.206 67.1983 126.427
-114.828 67.1985 126.422
-114.449 67.1982 126.428
-114.08 67.2036 126.297
-113.713 67.2105 126.129
-113.34 67.214 126.045
-112.976 67.2226 125.835
-112.604 67.2262 125.749
-112.227 67.2276 125.714
-111.856 67.232 125.607
-111.488 67.2381 125.459
-111.119 67.2444 125.306
-110.733 67.2398 125.417
-110.357 67.2416 125.373
-109.99 67.2485 125.205
-109.634 67.2626 124.862
-109.269 67.2707 124.666
-108.894 67.2732 124.604
-108.524 67.2787 124.473
-108.161 67.2889 124.223
-107.803 67.3019 123.907
-107.44 67.3122 123.657
-107.058 67.3102 123.705
-106.678 67.3097 123.718
-106.317 67.3207 123.45
-105.957 67.3329 123.154
-105.592 67.3424 122.923
-105.231 67.3536 122.65
-104.867 67.3635 122.41
-104.5 67.3718 122.208
-104.132 67.3793 122.025
-103.769 67.3897 121.772
-103.419 67.4089 121.306
-103.065 67.4256 120.901
-102.705 67.4388 120.58
-102.333 67.4437 120.461
-101.965 67.4514 120.273
-101.607 67.466 119.919
-101.246 67.4789 119.606
-100.887 67.493 119.261
-100.53 67.5087 118.879
-100.168 67.521 118.583
-99.7938 67.5248 118.488
-99.4384 67.5417 118.078
-99.0877 67.562 117.585
-98.7345 67.5807 117.131
-98.3965 67.6099 116.42
-98.0526 67.6353 115.803
-97.7002 67.6551 115.321
-97.3521 67.678 114.765
-97.0048 67.7016 114.191
-96.6432 67.7154 113.855
-96.2901 67.7353 113.372
-95.9309 67.751 112.99
-95.5692 67.7651 112.648
-95.2157 67.7851 112.161
-94.8806 67.8185 111.35
-94.5407 67.8486 110.617
-147.638 67.4591 110.798
-147.176 67.4227 111.688
-146.699 67.3786 112.765
-146.26 67.3523 113.408
-145.842 67.3357 113.815
-145.472 67.341 113.687
-145.042 67.3181 114.246
-144.563 67.2726 115.358
-144.108 67.2384 116.192
-143.685 67.2187 116.675
-143.263 67.1992 117.153
-142.835 67.1769 117.698
-142.385 67.144 118.503
-141.953 67.1197 119.095
-141.561 67.114 119.235
-141.16 67.1038 119.484
-140.755 67.092 119.774
-140.35 67.0803 120.058
-139.95 67.0705 120.299
-139.542 67.0571 120.627
-139.12 67.0368 121.123
-138.69 67.0125 121.717
-138.273 66.9942 122.165
-137.875 66.9851 122.386
-137.479 66.9771 122.583
-137.088 66.9715 122.718
-136.709 66.9715 122.718
-136.314 66.9638 122.907
-135.909 66.9513 123.214
-135.518 66.9452 123.362
-135.128 66.94 123.489
-134.73 66.9308 123.715
-134.314 66.9123 124.166
-133.904 66.8967 124.548
-133.502 66.8849 124.835
-133.124 66.8854 124.824
-132.727 66.8766 125.038
-132.331 66.8679 125.251
-131.939 66.8608 125.424
-131.548 66.8547 125.574
-131.167 66.8537 125.598
-130.784 66.8514 125.655
-130.381 66.8386 125.968
-129.994 66.8343 126.073
-129.599 66.8258 126.281
-129.184 66.807 126.74
-128.778 66.7929 127.086
-128.393 66.7893 127.174
-128.002 66.7828 127.331
-127.627 66.7842 127.297
-127.253 66.7866 127.24
-126.864 66.7811 127.373
-126.477 66.7765 127.487
-126.113 66.7839 127.304
-125.731 66.7818 127.356
-125.354 66.7825 127.338
-124.971 66.7797 127.408
-124.576 66.7708 127.625
-124.191 66.7672 127.712
-123.83 66.7763 127.491
-123.456 66.7786 127.435
-123.07 66.7746 127.531
-122.686 66.7713 127.612
-122.304 66.7695 127.657
-121.915 66.7633 127.808
-121.554 66.773 127.573
-121.182 66.7761 127.496
-120.82 66.7851 127.276
-120.448 66.7886 127.191
-120.057 66.7813 127.368
-119.67 66.7769 127.477
-119.3 66.781 127.375
-118.927 66.7843 127.295
-118.555 66.7876 127.215
-118.178 66.7884 127.194
-117.804 66.7908 127.137
-117.437 66.7972 126.981
-117.06 66.798 126.96
-116.682 66.7979 126.962
-116.307 66.8002 126.907
-115.927 66.799 126.936
-115.552 66.8009 126.889
-115.196 66.8142 126.565
-114.824 66.8179 126.474
-114.448 66.8193 126.439
-114.081 66.8259 126.278
-113.712 66.8313 126.146
-113.343 66.837 126.008
-112.973 66.842 125.885
-112.595 66.8422 125.88
-112.218 66.8437 125.844
-111.849 66.8493 125.706
-111.477 66.8532 125.61
-111.105 66.8571 125.517
-110.72 66.8534 125.605
-110.345 66.8557 125.549
-109.984 66.8664 125.288
-109.631 66.8816 124.917
-109.262 66.8876 124.77
-108.888 66.8908 124.692
-108.522 66.8986 124.501
-108.156 66.9066 124.304
-107.79 66.9146 124.11
-107.422 66.9215 123.941
-107.044 66.9222 123.924
-106.677 66.9296 123.744
-106.311 66.9377 123.544
-105.95 66.9495 123.257
-105.585 66.9583 123.041
-105.224 66.9697 122.762
-104.858 66.9784 122.551
-104.488 66.9847 122.396
-104.121 66.9928 122.198
-103.767 67.0092 121.796
-103.41 67.0233 121.452
-103.054 67.0389 121.071
-102.697 67.0539 120.705
-102.325 67.0585 120.591
-101.956 67.0659 120.411
-101.599 67.0807 120.049
-101.243 67.0968 119.656
-100.885 67.1118 119.289
-100.527 67.126 118.94
-100.157 67.1328 118.776
-99.7883 67.1408 118.579
-99.4399 67.1623 118.054
-99.0914 67.184 117.525
-98.7396 67.2035 117.047
-98.3955 67.2285 116.436
-98.0461 67.25 115.91
-97.697 67.2719 115.376
-97.3471 67.2933 114.851
-96.9898 67.3099 114.446
-96.6236 67.3204 114.19
-96.2814 67.3477 113.522
-95.9264 67.3663 113.068
-95.5667 67.3817 112.691
-95.2103 67.3996 112.254
-94.8624 67.4236 111.666
-94.5258 67.4559 110.876
-94.2051 67.4999 109.802
-148.117 67.1211 109.715
-147.608 67.0635 111.132
-147.16 67.0334 111.871
-146.686 66.9914 112.904
-146.258 66.9702 113.424
-145.842 66.9541 113.82
-145.442 66.9456 114.03
-145.01 66.9223 114.602
-144.552 66.8867 115.479
-144.09 66.8489 116.406
-143.676 66.8335 116.785
-143.266 66.82 117.118
-142.832 66.795 117.733
-142.373 66.7582 118.637
-141.948 66.7373 119.152
-141.544 66.726 119.429
-141.146 66.7173 119.644
-140.749 66.7094 119.836
-140.341 66.696 120.166
-139.935 66.6835 120.475
-139.523 66.6683 120.848
-139.099 66.6469 121.373
-138.67 66.6232 121.957
-138.258 66.6075 122.343
-137.857 66.5973 122.594
-137.468 66.5923 122.716
-137.079 66.5877 122.829
-136.693 66.5845 122.907
-136.298 66.5768 123.098
-135.903 66.5693 123.282
-135.507 66.5609 123.488
-135.111 66.5524 123.697
-134.704 66.539 124.028
-134.29 66.5214 124.459
-133.888 66.51 124.74
-133.492 66.5016 124.947
-133.119 66.5042 124.883
-132.729 66.4987 125.018
-132.329 66.4877 125.287
-131.933 66.4793 125.494
-131.549 66.4767 125.559
-131.158 66.4703 125.717
-130.763 66.462 125.919
-130.359 66.4489 126.243
-129.973 66.4453 126.33
-129.592 66.4441 126.359
-129.181 66.427 126.781
-128.774 66.4125 127.137
-128.372 66.4 127.444
-127.989 66.3977 127.501
-127.619 66.4018 127.4
-127.244 66.4036 127.355
-126.857 66.3988 127.473
-126.476 66.3976 127.503
-126.11 66.404 127.346
-125.721 66.398 127.492
-125.346 66.4 127.444
-124.963 66.3975 127.506
-124.565 66.3868 127.768
-124.186 66.3866 127.774
-123.818 66.3919 127.643
-123.436 66.3897 127.698
-123.051 66.3859 127.792
-122.678 66.389 127.714
-122.293 66.385 127.813
-121.918 66.3871 127.761
-121.553 66.3939 127.595
-121.178 66.3956 127.552
-120.807 66.3996 127.455
-120.434 66.4027 127.378
-120.051 66.3998 127.45
-119.673 66.3998 127.449
-119.305 66.4057 127.304
-118.93 66.4075 127.259
-118.551 66.407 127.271
-118.173 66.4073 127.265
-117.807 66.414 127.1
-117.431 66.4156 127.062
-117.05 66.4141 127.097
-116.672 66.4141 127.098
-116.295 66.4149 127.078
-115.915 66.414 127.1
-115.536 66.4137 127.107
-115.179 66.4257 126.813
-114.818 66.4356 126.568
-114.446 66.4394 126.476
-114.076 66.4445 126.35
-113.709 66.4512 126.184
-113.337 66.4549 126.095
-112.957 66.4541 126.113
-112.576 66.4529 126.143
-112.206 66.4577 126.025
-111.847 66.4692 125.743
-111.47 66.47 125.724
-111.089 66.4688 125.753
-110.703 66.4643 125.864
-110.335 66.4711 125.697
-109.981 66.4854 125.344
-109.625 66.4996 124.996
-109.254 66.5041 124.884
-108.887 66.5111 124.712
-108.518 66.5177 124.551
-108.149 66.5235 124.409
-107.778 66.5285 124.285
-107.406 66.5326 124.184
-107.035 66.5377 124.059
-106.678 66.5511 123.729
-106.31 66.5582 123.555
-105.944 66.5668 123.343
-105.579 66.5757 123.124
-105.213 66.5839 122.923
-104.846 66.5919 122.726
-104.482 66.6011 122.5
-104.124 66.6152 122.152
-103.761 66.6258 121.892
-103.394 66.6336 121.701
-103.041 66.6505 121.285
-102.69 66.6692 120.826
-102.316 66.6733 120.724
-101.942 66.677 120.634
-101.588 66.6941 120.212
-101.238 66.7133 119.741
-100.884 66.7307 119.313
-100.519 66.7406 119.071
-100.146 66.7455 118.949
-99.7854 66.7586 118.627
-99.4412 66.7828 118.032
-99.0926 66.8043 117.504
-98.7375 66.8215 117.082
-98.3877 66.8424 116.567
-98.0387 66.8641 116.034
-97.6911 66.8868 115.475
-97.3351 66.904 115.053
-96.962 66.9095 114.918
-96.602 66.9241 114.558
-96.2723 66.9599 113.678
-95.9236 66.9828 113.116
-95.5657 66.9993 112.709
-95.2085 67.0165 112.285
-94.8545 67.0361 111.803
-94.5125 67.0644 111.108
-94.1898 67.1067 110.069
-148.066 66.7158 110.282
-147.586 66.6715 111.377
-147.134 66.6399 112.16
-146.675 66.6048 113.028
-146.252 66.5857 113.5
-145.822 66.5635 114.048
-145.397 66.5436 114.542
-144.971 66.5232 115.045
-144.531 66.4958 115.723
-144.077 66.4624 116.549
-143.664 66.4474 116.92
-143.246 66.4302 117.346
-142.82 66.4088 117.874
-142.376 66.3795 118.599
-141.956 66.3606 119.065
-141.533 66.3408 119.557
-141.121 66.3255 119.935
-140.731 66.3208 120.051
-140.327 66.3095 120.329
-139.911 66.2922 120.758
-139.493 66.2744 121.197
-139.08 66.2584 121.593
-138.665 66.2412 122.019
-138.253 66.226 122.394
-137.857 66.2179 122.594
-137.458 66.2084 122.83
-137.067 66.2027 122.972
-136.674 66.1958 123.14
-136.286 66.1917 123.242
-135.892 66.1847 123.415
-135.496 66.1763 123.624
-135.096 66.1661 123.877
-134.687 66.1512 124.244
-134.283 66.1391 124.544
-133.889 66.1316 124.729
-133.491 66.1223 124.96
-133.114 66.1229 124.943
-132.726 66.1185 125.052
-132.33 66.1097 125.271
-131.938 66.1029 125.438
-131.545 66.0961 125.606
-131.133 66.0789 126.031
-130.732 66.0677 126.309
-130.336 66.0586 126.533
-129.959 66.0594 126.513
-129.573 66.0556 126.609
-129.16 66.0381 127.04
-128.75 66.0216 127.448
-128.353 66.0121 127.684
-127.974 66.0119 127.688
-127.604 66.016 127.587
-127.232 66.0194 127.504
-126.854 66.0194 127.504
-126.483 66.0231 127.411
-126.114 66.028 127.291
-125.728 66.024 127.39
-125.352 66.0251 127.362
-124.974 66.0253 127.358
-124.574 66.0136 127.648
-124.189 66.0098 127.74
-123.809 66.0088 127.765
-123.412 65.9987 128.015
-123.036 65.9998 127.989
-122.675 66.0091 127.759
-122.3 66.0105 127.722
-121.925 66.0123 127.678
-121.551 66.015 127.612
-121.171 66.0135 127.648
-120.793 66.0138 127.642
-120.422 66.0177 127.545
-120.042 66.017 127.562
-119.671 66.0208 127.469
-119.305 66.0275 127.303
-118.926 66.0271 127.313
-118.555 66.0312 127.212
-118.181 66.0336 127.152
-117.803 66.0335 127.154
-117.426 66.0344 127.132
-117.044 66.0323 127.185
-116.663 66.0308 127.222
-116.286 66.0317 127.2
-115.906 66.0302 127.235
-115.526 66.0295 127.253
-115.167 66.0406 126.978
-114.81 66.053 126.672
-114.436 66.0555 126.612
-114.065 66.0594 126.513
-113.697 66.0655 126.362
-113.317 66.0649 126.377
-112.931 66.0606 126.484
-112.555 66.0617 126.457
-112.195 66.0725 126.19
-111.834 66.0831 125.928
-111.455 66.0826 125.94
-111.072 66.0798 126.009
-110.692 66.079 126.029
-110.336 66.0925 125.695
-109.977 66.1047 125.395
-109.614 66.114 125.164
-109.246 66.1203 125.009
-108.881 66.1291 124.791
-108.513 66.1357 124.627
-108.144 66.1412 124.491
-107.766 66.1421 124.47
-107.389 66.1431 124.444
-107.02 66.1496 124.283
-106.668 66.1662 123.874
-106.309 66.1786 123.566
-105.945 66.188 123.333
-105.578 66.1958 123.14
-105.203 66.1981 123.085
-104.837 66.2064 122.88
-104.478 66.2196 122.553
-104.118 66.2315 122.258
-103.746 66.2366 122.133
-103.376 66.2424 121.989
-103.026 66.2613 121.521
-102.682 66.2842 120.956
-102.307 66.2876 120.871
-101.931 66.29 120.812
-101.582 66.31 120.317
-101.233 66.33 119.822
-100.875 66.3448 119.457
-100.508 66.3534 119.245
-100.139 66.3608 119.061
-99.786 66.3788 118.617
-99.437 66.3997 118.101
-99.0807 66.4158 117.702
-98.7203 66.4293 117.367
-98.3745 66.4528 116.787
-98.0319 66.4785 116.15
-97.6853 66.5019 115.573
-97.3235 66.515 115.248
-96.9516 66.5213 115.093
-96.5951 66.5382 114.675
-96.2596 66.5697 113.895
-95.9127 66.5937 113.303
-95.5587 66.6128 112.83
-95.2046 66.6321 112.353
-94.8474 66.6493 111.928
-94.5039 66.6763 111.259
-94.1697 66.7102 110.422
-93.8315 66.7414 109.649
-148.498 66.3556 109.736
-148.007 66.3073 110.938
-147.547 66.2719 111.819
-147.086 66.2362 112.705
-146.651 66.2125 113.294
-146.232 66.1952 113.726
-145.786 66.1662 114.447
-145.353 66.1423 115.04
-144.92 66.1188 115.625
-144.49 66.0962 116.187
-144.057 66.0726 116.774
-143.645 66.0578 117.142
-143.211 66.0335 117.746
-142.783 66.0115 118.293
-142.363 65.9932 118.748
-141.95 65.9778 119.132
-141.527 65.9577 119.631
-141.106 65.9387 120.105
-140.706 65.9291 120.343
-140.313 65.923 120.494
-139.893 65.904 120.968
-139.468 65.8828 121.494
-139.067 65.8725 121.752
-138.667 65.863 121.986
-138.255 65.8473 122.378
-137.855 65.8376 122.618
-137.46 65.8299 122.809
-137.059 65.8194 123.072
-136.667 65.8135 123.218
-136.279 65.8094 123.32
-135.886 65.8024 123.494
-135.485 65.7919 123.756
-135.08 65.7792 124.071
-134.678 65.7682 124.343
-134.285 65.7609 124.526
-133.889 65.7526 124.733
-133.488 65.7416 125.005
-133.104 65.7394 125.06
-132.716 65.7345 125.183
-132.325 65.7287 125.326
-131.939 65.7247 125.426
-131.532 65.7108 125.773
-131.104 65.6861 126.387
-130.708 65.677 126.614
-130.317 65.6708 126.767
-129.936 65.6695 126.8
-129.546 65.6634 126.95
-129.136 65.6476 127.345
-128.732 65.6346 127.667
-128.345 65.6301 127.78
-127.969 65.631 127.756
-127.599 65.6353 127.649
-127.228 65.6388 127.563
-126.848 65.6378 127.587
-126.477 65.6416 127.494
-126.11 65.6474 127.349
-125.739 65.6513 127.251
-125.363 65.6523 127.228
-124.988 65.6542 127.181
-124.594 65.6459 127.387
-124.201 65.638 127.582
-123.79 65.6208 128.01
-123.39 65.6092 128.299
-123.033 65.6204 128.02
-122.676 65.6313 127.749
-122.306 65.636 127.632
-121.928 65.6358 127.637
-121.548 65.635 127.657
-121.164 65.6318 127.736
-120.783 65.6305 127.77
-120.41 65.6331 127.704
-120.026 65.6299 127.784
-119.65 65.6311 127.756
-119.303 65.6484 127.325
-118.928 65.6498 127.29
-118.551 65.6508 127.265
-118.172 65.6501 127.282
-117.796 65.6516 127.243
-117.418 65.6516 127.245
-117.037 65.6499 127.287
-116.659 65.65 127.284
-116.282 65.6512 127.255
-115.901 65.6492 127.303
-115.526 65.6512 127.255
-115.167 65.6624 126.975
-114.798 65.6677 126.843
-114.419 65.6673 126.853
-114.058 65.6772 126.608
-113.684 65.6797 126.545
-113.299 65.6758 126.643
-112.914 65.6721 126.734
-112.547 65.6787 126.569
-112.185 65.6884 126.329
-111.818 65.6948 126.169
-111.443 65.6969 126.117
-111.069 65.6996 126.051
-110.698 65.7041 125.938
-110.341 65.7171 125.616
-109.974 65.7238 125.449
-109.6 65.7268 125.375
-109.237 65.7366 125.131
-108.873 65.7452 124.917
-108.507 65.7531 124.721
-108.135 65.7569 124.625
-107.754 65.7555 124.659
-107.373 65.7545 124.685
-107.007 65.7623 124.492
-106.659 65.7816 124.011
-106.306 65.7974 123.619
-105.945 65.8087 123.338
-105.571 65.8119 123.258
-105.195 65.8143 123.198
-104.832 65.8239 122.959
-104.471 65.8357 122.667
-104.105 65.8441 122.457
-103.732 65.848 122.359
-103.364 65.8555 122.175
-103.018 65.8771 121.637
-102.674 65.8997 121.074
-102.303 65.905 120.944
-101.935 65.9125 120.756
-101.581 65.9294 120.336
-101.225 65.9451 119.944
-100.87 65.9614 119.539
-100.506 65.9719 119.279
-100.143 65.9834 118.992
-99.7887 66.0003 118.573
-99.428 66.0133 118.25
-99.061 66.0222 118.028
-98.708 66.0405 117.572
-98.3637 66.0648 116.968
-98.0211 66.0905 116.33
-97.6738 66.1131 115.767
-97.3177 66.13 115.347
-96.9516 66.1401 115.094
-96.5921 66.155 114.726
-96.2394 66.1745 114.24
-95.8926 66.1983 113.648
-95.549 66.2245 112.996
-95.1956 66.2441 112.508
-94.8427 66.2642 112.008
-94.4968 66.2894 111.383
-94.1533 66.3165 110.71
-93.8212 66.3518 109.83
-148.44 65.9479 110.371
-147.953 65.9011 111.541
-147.498 65.8683 112.362
-147.038 65.8334 113.235
-146.621 65.8172 113.641
-146.205 65.8016 114.031
-145.753 65.77 114.821
-145.315 65.7441 115.469
-144.88 65.7198 116.077
-144.459 65.7013 116.538
-144.035 65.6817 117.029
-143.631 65.6711 117.296
-143.186 65.6414 118.037
-142.735 65.609 118.849
-142.326 65.5958 119.179
-141.921 65.5842 119.468
-141.516 65.5726 119.758
-141.104 65.5578 120.129
-140.697 65.545 120.45
-140.296 65.5355 120.688
-139.879 65.5178 121.13
-139.457 65.4981 121.622
-139.061 65.4904 121.816
-138.669 65.4846 121.961
-138.254 65.4674 122.391
-137.852 65.4568 122.654
-137.458 65.4498 122.831
-137.062 65.4416 123.035
-136.669 65.435 123.201
-136.277 65.429 123.351
-135.876 65.4185 123.612
-135.468 65.4045 123.963
-135.068 65.3944 124.217
-134.678 65.3893 124.344
-134.281 65.3804 124.567
-133.882 65.3706 124.811
-133.487 65.3626 125.011
-133.094 65.3555 125.189
-132.7 65.348 125.377
-132.313 65.3442 125.473
-131.929 65.3413 125.545
-131.518 65.3252 125.947
-131.089 65.3003 126.571
-130.695 65.2922 126.772
-130.312 65.29 126.827
-129.93 65.2884 126.868
-129.527 65.2756 127.188
-129.121 65.2617 127.535
-128.734 65.2573 127.645
-128.357 65.258 127.627
-127.981 65.2591 127.6
-127.605 65.26 127.577
-127.225 65.2589 127.605
-126.836 65.2534 127.742
-126.461 65.2554 127.692
-126.102 65.2649 127.457
-125.743 65.2753 127.195
-125.358 65.2718 127.284
-124.976 65.2695 127.341
-124.594 65.2678 127.382
-124.197 65.258 127.628
-123.782 65.2385 128.117
-123.398 65.2353 128.195
-123.043 65.2472 127.898
-122.682 65.2563 127.671
-122.309 65.2592 127.599
-121.924 65.2556 127.69
-121.539 65.2521 127.776
-121.156 65.2492 127.848
-120.774 65.2475 127.891
-120.402 65.2508 127.809
-120.02 65.2484 127.868
-119.638 65.2464 127.918
-119.284 65.2597 127.586
-118.912 65.2628 127.508
-118.536 65.2643 127.471
-118.155 65.2627 127.511
-117.78 65.2643 127.47
-117.404 65.2656 127.437
-117.028 65.2666 127.412
-116.655 65.27 127.329
-116.279 65.271 127.303
-115.898 65.2692 127.349
-115.526 65.2727 127.259
-115.161 65.2804 127.067
-114.788 65.2834 126.992
-114.414 65.2858 126.933
-114.05 65.2943 126.722
-113.675 65.296 126.679
-113.284 65.2889 126.856
-112.912 65.2923 126.771
-112.549 65.3014 126.542
-112.179 65.3066 126.413
-111.806 65.3096 126.337
-111.437 65.3152 126.198
-111.071 65.3222 126.023
-110.702 65.328 125.876
-110.34 65.3377 125.634
-109.969 65.3422 125.522
-109.599 65.3476 125.387
-109.233 65.3549 125.204
-108.866 65.362 125.028
-108.5 65.3697 124.835
-108.129 65.3747 124.708
-107.748 65.3731 124.749
-107.371 65.3742 124.723
-107.009 65.385 124.452
-106.662 65.4045 123.964
-106.299 65.4144 123.715
-105.933 65.4224 123.517
-105.561 65.4268 123.405
-105.193 65.4339 123.229
-104.827 65.4417 123.032
-104.463 65.4511 122.797
-104.097 65.4596 122.585
-103.728 65.466 122.427
-103.366 65.477 122.149
-103.024 65.5009 121.553
-102.671 65.5183 121.117
-102.305 65.5268 120.905
-101.939 65.5358 120.679
-101.577 65.5468 120.404
-101.223 65.5638 119.978
-100.865 65.5781 119.621
-100.507 65.5927 119.256
-100.146 65.6049 118.952
-99.784 65.6169 118.651
-99.4219 65.6289 118.35
-99.0548 65.6377 118.131
-98.7064 65.6589 117.599
-98.3551 65.6785 117.111
-98.0055 65.6992 116.591
-97.6578 65.7214 116.036
-97.3045 65.7401 115.57
-96.9428 65.7532 115.242
-96.5799 65.7655 114.934
-96.223 65.782 114.52
-95.8757 65.8053 113.938
-95.5332 65.8321 113.268
-95.1863 65.856 112.67
-94.8422 65.8821 112.017
-94.4959 65.9069 111.398
-94.1449 65.9285 110.857
-93.8116 65.9627 110
-148.398 65.5469 110.844
-147.933 65.5101 111.771
-147.482 65.4797 112.535
-147.021 65.4443 113.426
-146.596 65.4247 113.919
-146.187 65.4124 114.23
-145.749 65.3871 114.866
-145.309 65.3603 115.54
-144.867 65.3331 116.224
-144.437 65.3109 116.783
-144.015 65.2919 117.261
-143.606 65.279 117.585
-143.16 65.2493 118.333
-142.711 65.218 119.12
-142.296 65.2017 119.53
-141.893 65.1914 119.79
-141.494 65.1824 120.017
-141.086 65.1697 120.336
-140.687 65.1606 120.564
-140.273 65.145 120.957
-139.861 65.1297 121.342
-139.456 65.118 121.636
-139.064 65.1123 121.779
-138.666 65.1037 121.997
-138.245 65.084 122.491
-137.852 65.0777 122.651
-137.466 65.0743 122.736
-137.069 65.066 122.943
-136.667 65.0549 123.224
-136.266 65.0446 123.481
-135.858 65.0311 123.823
-135.451 65.0175 124.164
-135.064 65.0137 124.26
-134.678 65.0102 124.349
-134.27 64.9958 124.709
-133.872 64.9867 124.941
-133.486 64.9831 125.029
-133.088 64.974 125.258
-132.684 64.9617 125.569
-132.288 64.9529 125.789
-131.899 64.9476 125.922
-131.496 64.9356 126.226
-131.087 64.9209 126.595
-130.695 64.914 126.768
-130.315 64.913 126.794
-129.932 64.9107 126.852
-129.52 64.894 127.272
-129.128 64.8871 127.444
-128.755 64.8899 127.374
-128.379 64.891 127.346
-127.992 64.8865 127.461
-127.605 64.8821 127.57
-127.221 64.8791 127.646
-126.831 64.8729 127.804
-126.454 64.8734 127.791
-126.094 64.8826 127.56
-125.739 64.8945 127.259
-125.344 64.8859 127.476
-124.956 64.8808 127.605
-124.594 64.8895 127.385
-124.202 64.882 127.574
-123.798 64.8685 127.914
-123.418 64.8675 127.938
-123.047 64.8717 127.834
-122.677 64.8757 127.732
-122.298 64.8753 127.741
-121.91 64.8698 127.881
-121.526 64.8667 127.96
-121.145 64.8653 127.994
-120.763 64.8634 128.043
-120.393 64.8673 127.943
-120.019 64.8696 127.885
-119.637 64.8676 127.935
-119.268 64.8728 127.806
-118.894 64.8748 127.755
-118.514 64.8739 127.778
-118.144 64.8781 127.671
-117.771 64.8811 127.596
-117.392 64.8809 127.601
-117.018 64.8832 127.543
-116.649 64.888 127.422
-116.272 64.889 127.397
-115.894 64.889 127.398
-115.524 64.8937 127.279
-115.153 64.8979 127.174
-114.771 64.8955 127.233
-114.406 64.9029 127.048
-114.046 64.9136 126.779
-113.666 64.9128 126.8
-113.281 64.909 126.895
-112.913 64.9147 126.752
-112.545 64.9206 126.602
-112.172 64.9239 126.518
-111.8 64.9273 126.434
-111.433 64.9344 126.254
-111.063 64.9391 126.137
-110.692 64.9437 126.021
-110.327 64.9516 125.823
-109.974 64.9669 125.438
-109.603 64.9712 125.33
-109.229 64.9743 125.251
-108.859 64.9791 125.13
-108.493 64.9867 124.94
-108.12 64.9902 124.851
-107.742 64.9908 124.837
-107.373 64.9965 124.692
-107.019 65.0116 124.313
-106.666 65.0277 123.908
-106.293 65.0315 123.813
-105.923 65.0368 123.679
-105.557 65.0451 123.471
-105.192 65.0536 123.257
-104.826 65.0619 123.048
-104.462 65.0712 122.813
-104.096 65.0798 122.598
-103.729 65.0877 122.399
-103.368 65.099 122.114
-103.023 65.1209 121.563
-102.664 65.1341 121.23
-102.295 65.141 121.058
-101.933 65.1519 120.783
-101.568 65.1616 120.538
-101.205 65.1723 120.27
-100.854 65.1909 119.803
-100.503 65.2101 119.32
-100.143 65.2227 119.003
-99.7771 65.2321 118.764
-99.4201 65.2474 118.38
-99.0599 65.2607 118.046
-98.7015 65.2752 117.681
-98.3412 65.2886 117.343
-97.9839 65.3041 116.953
-97.6324 65.3236 116.464
-97.2808 65.3432 115.97
-96.9223 65.3583 115.591
-96.5608 65.3714 115.26
-96.2098 65.3918 114.747
-95.8653 65.4169 114.116
-95.5171 65.4395 113.546
-95.1742 65.466 112.88
-94.8346 65.4951 112.149
-94.4862 65.5181 111.568
-94.1308 65.5366 111.104
-93.7927 65.5673 110.332
-148.39 65.1614 110.932
-147.926 65.1253 111.846
-147.475 65.0948 112.617
-147.017 65.0608 113.478
-146.59 65.0406 113.988
-146.18 65.0279 114.311
-145.75 65.0064 114.854
-145.308 64.9791 115.545
-144.861 64.9494 116.297
-144.422 64.9233 116.957
-144.002 64.9058 117.402
-143.577 64.8853 117.92
-143.139 64.8591 118.581
-142.716 64.8399 119.068
-142.301 64.824 119.471
-141.884 64.807 119.902
-141.457 64.7856 120.442
-141.052 64.7741 120.734
-140.656 64.7668 120.918
-140.249 64.7542 121.236
-139.84 64.7402 121.591
-139.445 64.7332 121.769
-139.056 64.7287 121.883
-138.646 64.7148 122.234
-138.236 64.7003 122.601
-137.848 64.6963 122.701
-137.469 64.6964 122.701
-137.068 64.6861 122.962
-136.66 64.6724 123.307
-136.254 64.6597 123.629
-135.841 64.6437 124.033
-135.437 64.6317 124.338
-135.056 64.6307 124.362
-134.669 64.6271 124.455
-134.259 64.6122 124.831
-133.864 64.604 125.039
-133.482 64.6024 125.078
-133.097 64.5994 125.155
-132.685 64.5832 125.564
-132.274 64.5674 125.964
-131.88 64.5601 126.149
-131.484 64.5515 126.367
-131.078 64.5379 126.711
-130.679 64.5275 126.975
-130.305 64.5298 126.916
-129.919 64.5261 127.01
-129.518 64.5149 127.293
-129.135 64.5125 127.355
-128.764 64.5161 127.264
-128.384 64.5151 127.289
-127.993 64.5088 127.447
-127.606 64.5041 127.567
-127.218 64.4992 127.691
-126.823 64.4906 127.909
-126.44 64.4884 127.964
-126.075 64.4951 127.794
-125.714 64.5035 127.582
-125.317 64.4942 127.818
-124.934 64.4913 127.89
-124.572 64.4998 127.676
-124.196 64.5011 127.643
-123.802 64.4925 127.86
-123.426 64.494 127.823
-123.051 64.4957 127.78
-122.673 64.4957 127.778
-122.29 64.4931 127.845
-121.906 64.4897 127.931
-121.526 64.489 127.95
-121.143 64.4862 128.02
-120.762 64.4848 128.054
-120.391 64.4884 127.964
-120.018 64.4909 127.901
-119.641 64.4916 127.883
-119.264 64.4926 127.857
-118.879 64.4887 127.957
-118.502 64.4891 127.946
-118.133 64.4939 127.824
-117.762 64.4984 127.712
-117.388 64.5002 127.666
-117.013 64.5023 127.613
-116.64 64.5052 127.538
-116.265 64.5069 127.495
-115.893 64.5101 127.415
-115.525 64.5157 127.272
-115.144 64.5143 127.309
-114.756 64.5089 127.444
-114.407 64.5252 127.032
-114.042 64.5331 126.832
-113.663 64.5324 126.851
-113.285 64.5327 126.843
-112.911 64.5351 126.781
-112.539 64.539 126.684
-112.166 64.542 126.608
-111.795 64.5461 126.503
-111.434 64.5566 126.238
-111.068 64.5636 126.06
-110.702 64.5707 125.88
-110.312 64.564 126.052
-109.969 64.5849 125.522
-109.597 64.589 125.419
-109.223 64.5915 125.354
-108.853 64.5967 125.222
-108.487 64.6043 125.032
-108.116 64.6091 124.91
-107.739 64.6101 124.883
-107.372 64.6171 124.707
-107.022 64.6348 124.259
-106.659 64.6445 124.013
-106.291 64.6512 123.844
-105.919 64.6553 123.741
-105.553 64.6637 123.528
-105.183 64.6691 123.392
-104.814 64.6754 123.232
-104.449 64.6844 123.003
-104.088 64.6953 122.727
-103.722 64.704 122.506
-103.355 64.7118 122.311
-103.002 64.7281 121.899
-102.654 64.7477 121.4
-102.285 64.7545 121.23
-101.919 64.7633 121.006
-101.553 64.7719 120.789
-101.193 64.7847 120.464
-100.841 64.8026 120.012
-100.489 64.8208 119.551
-100.132 64.8353 119.186
-99.767 64.8454 118.929
-99.4098 64.8604 118.55
-99.0543 64.8766 118.139
-98.6888 64.8864 117.893
-98.3201 64.8941 117.696
-97.9604 64.9079 117.348
-97.609 64.9273 116.857
-97.257 64.9464 116.373
-96.9018 64.9636 115.938
-96.5477 64.9816 115.482
-96.1994 65.0037 114.924
-95.8594 65.0316 114.217
-95.5117 65.0544 113.639
-95.1712 65.0824 112.931
-94.8291 65.1095 112.245
-94.4755 65.1289 111.755
-94.1147 65.1435 111.386
-93.7709 65.17 110.715
-93.4492 65.2121 109.648
-148.397 64.7825 110.853
-147.914 64.7384 111.975
-147.468 64.71 112.699
-147.026 64.6833 113.377
-146.587 64.658 114.022
-146.15 64.6334 114.647
-145.729 64.616 115.09
-145.294 64.5917 115.71
-144.854 64.5656 116.374
-144.417 64.5404 117.014
-143.993 64.5211 117.506
-143.561 64.4979 118.097
-143.128 64.4743 118.697
-142.7 64.4525 119.253
-142.282 64.4355 119.685
-141.875 64.4233 119.995
-141.449 64.4024 120.528
-141.057 64.3967 120.674
-140.652 64.3853 120.964
-140.231 64.3662 121.449
-139.825 64.3538 121.764
-139.433 64.3484 121.903
-139.041 64.3425 122.052
-138.638 64.3317 122.327
-138.242 64.3236 122.534
-137.841 64.3136 122.788
-137.445 64.3061 122.98
-137.047 64.297 123.213
-136.645 64.2864 123.481
-136.246 64.277 123.72
-135.833 64.2607 124.136
-135.42 64.2449 124.537
-135.036 64.2423 124.605
-134.651 64.2397 124.671
-134.251 64.2293 124.935
-133.86 64.2235 125.082
-133.475 64.2203 125.163
-133.096 64.2203 125.164
-132.689 64.2069 125.506
-132.278 64.1909 125.913
-131.89 64.1861 126.034
-131.5 64.1808 126.17
-131.082 64.1614 126.662
-130.69 64.1548 126.83
-130.299 64.1487 126.988
-129.906 64.1413 127.175
-129.512 64.1333 127.379
-129.134 64.1334 127.375
-128.754 64.1326 127.396
-128.365 64.1274 127.528
-127.981 64.1243 127.607
-127.602 64.1242 127.611
-127.216 64.1202 127.712
-126.821 64.1114 127.936
-126.433 64.1064 128.064
-126.059 64.1086 128.008
-125.681 64.1087 128.004
-125.289 64.1014 128.191
-124.914 64.1033 128.143
-124.547 64.1085 128.009
-124.176 64.1125 127.909
-123.806 64.1168 127.799
-123.429 64.117 127.793
-123.047 64.1152 127.84
-122.67 64.1158 127.825
-122.288 64.1138 127.875
-121.902 64.1097 127.98
-121.522 64.1087 128.004
-121.143 64.1079 128.025
-120.762 64.1064 128.064
-120.387 64.1082 128.017
-120.007 64.1072 128.043
-119.626 64.1056 128.085
-119.245 64.1038 128.128
-118.867 64.1042 128.119
-118.494 64.1069 128.049
-118.127 64.1128 127.901
-117.755 64.1163 127.812
-117.383 64.1194 127.733
-117.016 64.1254 127.58
-116.649 64.1316 127.422
-116.275 64.1342 127.356
-115.897 64.1341 127.359
-115.52 64.1349 127.338
-115.138 64.133 127.385
-114.76 64.133 127.386
-114.4 64.1432 127.127
-114.035 64.1508 126.934
-113.658 64.1515 126.916
-113.281 64.1521 126.9
-112.905 64.1536 126.862
-112.539 64.1606 126.683
-112.175 64.1686 126.48
-111.803 64.1725 126.382
-111.435 64.1784 126.231
-111.067 64.1846 126.072
-110.702 64.1923 125.877
-110.312 64.1856 126.047
-109.95 64.1955 125.795
-109.585 64.2034 125.595
-109.219 64.2109 125.403
-108.856 64.2202 125.166
-108.494 64.2301 124.913
-108.125 64.2356 124.775
-107.746 64.2354 124.78
-107.371 64.2379 124.716
-107.009 64.2481 124.455
-106.64 64.254 124.306
-106.282 64.2666 123.985
-105.92 64.2771 123.718
-105.549 64.2817 123.601
-105.178 64.2866 123.476
-104.812 64.295 123.262
-104.445 64.3027 123.066
-104.074 64.3074 122.946
-103.702 64.3117 122.836
-103.337 64.3212 122.596
-102.988 64.3399 122.12
-102.645 64.3629 121.534
-102.277 64.3699 121.355
-101.9 64.3714 121.317
-101.539 64.3832 121.018
-101.186 64.4007 120.573
-100.832 64.4166 120.166
-100.477 64.4326 119.759
-100.121 64.4485 119.354
-99.758 64.4594 119.078
-99.3934 64.4695 118.821
-99.0363 64.4845 118.437
-98.6712 64.4944 118.185
-98.3117 64.5081 117.837
-97.9572 64.5253 117.401
-97.5972 64.5388 117.057
-97.2388 64.5536 116.68
-96.8886 64.5739 116.162
-96.543 64.5975 115.563
-96.1953 64.6198 114.994
-95.8511 64.6447 114.36
-95.5013 64.666 113.818
-95.1552 64.6899 113.209
-94.8089 64.714 112.597
-94.4576 64.7348 112.066
-94.1072 64.7564 111.518
-93.7686 64.7863 110.755
-93.4379 64.8219 109.849
-148.424 64.4119 110.558
-147.912 64.3556 112.001
-147.437 64.3147 113.046
-146.998 64.2897 113.689
-146.558 64.2639 114.349
-146.115 64.2367 115.045
-145.677 64.2118 115.682
-145.262 64.1969 116.064
-144.847 64.1815 116.46
-144.419 64.1607 116.99
-143.986 64.1375 117.586
-143.547 64.1114 118.253
-143.126 64.0931 118.722
-142.697 64.0712 119.284
-142.272 64.0509 119.803
-141.874 64.0429 120.007
-141.479 64.036 120.185
-141.091 64.0322 120.283
-140.685 64.0206 120.58
-140.266 64.0026 121.04
-139.845 63.9835 121.53
-139.441 63.9722 121.818
-139.049 63.9664 121.966
-138.648 63.9568 122.213
-138.245 63.9458 122.495
-137.84 63.934 122.796
-137.439 63.924 123.053
-137.037 63.9134 123.324
-136.635 63.9027 123.598
-136.232 63.8912 123.893
-135.816 63.8742 124.329
-135.407 63.8598 124.697
-135.012 63.8522 124.891
-134.625 63.8482 124.993
-134.251 63.8503 124.939
-133.877 63.8529 124.872
-133.482 63.845 125.074
-133.091 63.839 125.23
-132.702 63.8344 125.348
-132.299 63.8224 125.655
-131.888 63.8069 126.052
-131.483 63.794 126.381
-131.088 63.786 126.587
-130.699 63.7809 126.717
-130.288 63.765 127.124
-129.884 63.7522 127.452
-129.497 63.7481 127.557
-129.118 63.7475 127.572
-128.732 63.7437 127.67
-128.344 63.7385 127.803
-127.97 63.7405 127.751
-127.603 63.7465 127.599
-127.223 63.7454 127.626
-126.834 63.7399 127.768
-126.437 63.7303 128.014
-126.051 63.7264 128.113
-125.666 63.7229 128.204
-125.279 63.7186 128.312
-124.906 63.7208 128.256
-124.536 63.7251 128.146
-124.161 63.7267 128.104
-123.8 63.7353 127.884
-123.43 63.7396 127.776
-123.046 63.7366 127.851
-122.66 63.7322 127.964
-122.28 63.7316 127.98
-121.902 63.7313 127.986
-121.52 63.7293 128.038
-121.141 63.729 128.045
-120.76 63.7274 128.086
-120.379 63.7259 128.127
-119.999 63.7247 128.155
-119.61 63.7191 128.301
-119.23 63.7181 128.325
-118.862 63.7233 128.191
-118.49 63.7265 128.111
-118.122 63.7318 127.975
-117.747 63.7336 127.927
-117.373 63.7361 127.864
-117.009 63.7434 127.678
-116.647 63.7526 127.443
-116.279 63.7579 127.307
-115.898 63.7565 127.343
-115.521 63.7573 127.323
-115.142 63.7568 127.333
-114.769 63.7598 127.257
-114.4 63.765 127.125
-114.036 63.7729 126.922
-113.66 63.7741 126.891
-113.279 63.7726 126.93
-112.904 63.7744 126.884
-112.541 63.7833 126.655
-112.178 63.7921 126.431
-111.805 63.7951 126.352
-111.429 63.7967 126.311
-111.048 63.7948 126.362
-110.673 63.7969 126.307
-110.306 63.8039 126.129
-109.945 63.814 125.87
-109.575 63.8188 125.747
-109.21 63.8269 125.538
-108.853 63.8393 125.221
-108.494 63.8513 124.915
-108.129 63.859 124.718
-107.756 63.8625 124.628
-107.38 63.8646 124.574
-107.002 63.8646 124.573
-106.622 63.8641 124.586
-106.274 63.8829 124.104
-105.918 63.8969 123.747
-105.546 63.9009 123.645
-105.178 63.9079 123.464
-104.819 63.92 123.155
-104.455 63.9291 122.921
-104.077 63.9299 122.902
-103.695 63.9282 122.944
-103.33 63.9375 122.708
-102.985 63.9584 122.171
-102.642 63.9815 121.581
-102.269 63.9852 121.486
-101.893 63.9878 121.419
-101.539 64.0039 121.005
-101.187 64.0216 120.554
-100.83 64.0355 120.198
-100.471 64.0492 119.846
-100.114 64.0635 119.481
-99.7503 64.0743 119.204
-99.3836 64.0829 118.983
-99.027 64.0982 118.592
-98.6659 64.1106 118.273
-98.3113 64.1275 117.842
-97.9526 64.1416 117.479
-97.5917 64.1545 117.149
-97.2391 64.1731 116.675
-96.8946 64.1971 116.06
-96.5479 64.2197 115.48
-96.1876 64.2335 115.126
-95.8315 64.2503 114.696
-95.4767 64.2681 114.242
-95.1248 64.2879 113.734
-94.7824 64.3143 113.057
-94.4451 64.3445 112.284
-94.1097 64.3762 111.473
-93.7723 64.4067 110.691
-93.4199 64.4272 110.167
-148.361 64.0028 111.254
-147.852 63.9477 112.674
-147.403 63.9185 113.425
-146.972 63.8972 113.974
-146.553 63.8808 114.396
-146.12 63.858 114.984
-145.667 63.8264 115.799
-145.225 63.7998 116.483
-144.813 63.7861 116.837
-144.43 63.7848 116.868
-143.984 63.7559 117.614
-143.544 63.7295 118.293
-143.135 63.717 118.617
-142.705 63.6945 119.194
-142.269 63.6698 119.833
-141.864 63.6582 120.131
-141.481 63.6569 120.165
-141.102 63.6574 120.15
-140.676 63.6364 120.691
-140.271 63.6252 120.981
-139.857 63.6096 121.383
-139.448 63.5963 121.725
-139.051 63.5882 121.934
-138.649 63.5778 122.201
-138.246 63.567 122.481
-137.84 63.5544 122.803
-137.436 63.543 123.099
-137.035 63.533 123.355
-136.635 63.5233 123.607
-136.223 63.5082 123.994
-135.804 63.4892 124.484
-135.401 63.478 124.773
-135.007 63.4711 124.95
-134.619 63.4666 125.066
-134.248 63.4701 124.977
-133.877 63.4741 124.872
-133.472 63.4613 125.202
-133.061 63.4463 125.59
-132.699 63.454 125.392
-132.314 63.4511 125.466
-131.901 63.4346 125.891
-131.446 63.3975 126.846
-131.055 63.3915 127.001
-130.684 63.395 126.91
-130.269 63.3772 127.37
-129.864 63.364 127.708
-129.487 63.3649 127.686
-129.11 63.3655 127.67
-128.723 63.3609 127.79
-128.334 63.3558 127.92
-127.965 63.3604 127.802
-127.602 63.3676 127.617
-127.218 63.3646 127.694
-126.826 63.358 127.865
-126.426 63.3469 128.151
-126.038 63.342 128.275
-125.664 63.344 128.226
-125.282 63.3419 128.278
-124.902 63.341 128.302
-124.533 63.3453 128.19
-124.161 63.3487 128.104
-123.799 63.3569 127.892
-123.424 63.3582 127.859
-123.03 63.3501 128.068
