# .PCD v0.7 - Point Cloud Data file format
VERSION 0.7
FIELDS x y z
SIZE 4 4 4
TYPE F F F
COUNT 1 1 1
WIDTH 1792
HEIGHT 1
VIEWPOINT 0 0 0 1 0 0 0
POINTS 1792
DATA ascii
233.5668 142.0513 114.1974
234.0436 142.1093 113.5254
234.4921 142.1499 113.0544
234.9032 142.1678 112.847
235.3041 142.1795 112.7124
235.7545 142.2209 112.2317
236.1943 142.2559 111.8264
236.6234 142.2844 111.4968
237.0554 142.3144 111.1487
237.3578 142.2668 111.7009
237.8474 142.3312 110.9547
238.263 142.3512 110.7222
238.774 142.4281 109.8315
239.1339 142.4148 109.9855
199.0014 142.0358 109.948
199.2971 141.9741 110.6644
199.7021 141.9904 110.475
200.0641 141.9761 110.641
200.4234 141.9599 110.8294
200.8098 141.963 110.7934
201.1377 141.9248 111.2371
201.4411 141.8694 111.8806
201.7277 141.8025 112.6579
202.0654 141.7717 113.0158
202.4258 141.7569 113.1884
202.7316 141.7039 113.8033
203.0185 141.6381 114.5684
203.3831 141.6265 114.703
203.8327 141.674 114.1505
204.3229 141.7496 113.2725
204.7004 141.7468 113.3046
204.988 141.682 114.0582
205.2816 141.6215 114.7613
205.6077 141.5835 115.2022
205.8938 141.5182 115.9603
206.1759 141.4505 116.7474
206.4329 141.3658 117.7317
206.7405 141.316 118.3101
207.2107 141.3773 117.5977
207.6592 141.4236 117.0598
208.3138 141.6099 114.8957
208.788 141.6731 114.1618
209.1198 141.6395 114.5512
209.4103 141.5782 115.2636
209.6701 141.4964 116.2142
209.9418 141.4229 117.0684
210.3188 141.4204 117.0969
210.7355 141.4447 116.8149
211.0437 141.3961 117.3795
211.3191 141.3258 118.1965
211.6927 141.3213 118.2483
212.1004 141.3395 118.037
212.5043 141.3551 117.8551
212.8989 141.3646 117.7458
213.2779 141.3636 117.757
213.633 141.3468 117.9521
213.9883 141.3303 118.1441
214.3464 141.3156 118.3152
214.7173 141.3093 118.3875
215.153 141.3457 117.9643
215.6409 141.4163 117.1451
215.9869 141.3936 117.4083
216.2506 141.3172 118.2957
216.563 141.2729 118.8108
216.7457 141.1443 120.305
217.2467 141.223 119.3901
217.8819 141.3886 117.4667
218.2765 141.3977 117.3611
218.6099 141.3672 117.7151
218.9416 141.3357 118.0807
219.3135 141.3303 118.144
219.6559 141.3058 118.4282
219.9878 141.2747 118.7891
220.3496 141.2629 118.9265
220.7498 141.2758 118.7773
221.1127 141.2647 118.9058
221.4857 141.2601 118.959
221.979 141.3321 118.1227
222.4608 141.3966 117.3739
222.971 141.4789 116.4179
223.3836 141.4991 116.1833
223.6027 141.3967 117.3718
223.7063 141.2219 119.4031
223.8824 141.0934 120.8959
224.2595 141.0917 120.9153
224.75 141.1613 120.1071
225.3431 141.295 118.554
225.8441 141.3705 117.6763
226.2497 141.3863 117.4936
226.5688 141.3479 117.9388
226.9411 141.3429 117.9978
227.4492 141.4223 117.0751
227.9977 141.5265 115.8645
228.3549 141.5118 116.035
228.6754 141.4745 116.4689
229.0614 141.4777 116.4311
229.4797 141.5009 116.1625
229.879 141.5122 116.0304
230.2716 141.5195 115.9462
230.7081 141.5536 115.55
231.1512 141.5916 115.1079
231.586 141.6245 114.7259
232.0625 141.6826 114.0504
232.4671 141.6969 113.8853
232.8004 141.6676 114.2251
233.1629 141.6562 114.3573
233.5993 141.6897 113.969
234.1012 141.7627 113.1208
234.5395 141.797 112.7219
234.9465 141.8123 112.5439
235.3188 141.8067 112.6091
235.7836 141.8567 112.0284
236.262 141.9147 111.3541
236.6129 141.8962 111.5701
236.952 141.8705 111.8681
237.4356 141.9314 111.1611
237.8699 141.9626 110.7986
238.2862 141.983 110.5614
238.772 142.0447 109.8448
199.0204 141.6671 109.7902
199.3298 141.6153 110.3936
199.7254 141.6248 110.2825
200.1008 141.62 110.3388
200.464 141.6066 110.4951
200.7242 141.5206 111.4961
201.1056 141.5202 111.5004
201.4114 141.4668 112.1232
201.7232 141.4177 112.6948
202.0667 141.3911 113.0052
202.4216 141.3725 113.2219
202.788 141.3619 113.3449
203.0721 141.2942 114.1338
203.3981 141.2557 114.5817
203.8211 141.2847 114.2441
204.3313 141.3739 113.2046
204.6952 141.3618 113.3461
205.0219 141.324 113.7865
205.4054 141.3255 113.7689
205.6581 141.2371 114.7986
205.859 141.1136 116.2379
206.0916 141.0122 117.4188
206.398 140.9615 118.0086
206.7201 140.9218 118.4716
207.0682 140.8998 118.7273
207.6327 141.025 117.2691
208.3322 141.2412 114.7509
208.7109 141.2396 114.7701
209.0595 141.2176 115.0256
209.3739 141.1727 115.5493
209.6366 141.093 116.4773
209.9376 141.0395 117.1008
210.3546 141.0638 116.8173
210.7605 141.0807 116.62
211.055 141.0231 117.2911
211.3383 140.9583 118.0465
211.6465 140.9101 118.6072
212.0518 140.9268 118.4127
212.6423 141.0663 116.7883
213.0428 141.0794 116.6354
213.3609 141.038 117.118
213.6786 140.9965 117.6014
213.9752 140.9412 118.2451
214.2737 140.8874 118.872
214.6994 140.9173 118.5242
215.2389 141.0216 117.3092
215.7939 141.1357 115.9795
216.2341 141.1745 115.5282
216.506 141.1033 116.3571
216.8305 141.0668 116.783
216.9517 140.8982 118.7462
217.3795 140.929 118.3871
217.8241 140.9707 117.9022
218.2358 140.9908 117.6671
218.6021 140.9818 117.7731
218.9863 140.9841 117.7457
219.3754 140.9897 117.6807
219.6946 140.9504 118.1385
220.0049 140.9055 118.6614
220.3891 140.908 118.6318
220.8837 140.981 117.7819
221.2126 140.9481 118.1648
221.5614 140.9281 118.3981
222.0306 140.9845 117.7406
222.5146 141.0501 116.9765
222.959 141.0905 116.5059
223.2927 141.0608 116.8526
223.4716 140.9336 118.3345
223.6997 140.8377 119.4508
224.0333 140.8085 119.791
224.443 140.8271 119.5743
224.9057 140.8789 118.971
225.4311 140.9697 117.9131
225.8935 141.0209 117.3169
226.2666 141.0163 117.3712
226.5858 140.9781 117.816
226.9887 140.992 117.6536
227.4609 141.0489 116.9906
227.9315 141.1046 116.3421
228.2522 141.0675 116.7741
228.6839 141.099 116.4078
229.1191 141.1325 116.017
229.5321 141.1522 115.7872
229.9091 141.1499 115.8146
230.3174 141.1666 115.6194
230.7616 141.2054 115.1685
231.2329 141.2604 114.5268
231.6882 141.3056 114.0004
232.1266 141.3404 113.5957
232.4806 141.3238 113.7892
232.8046 141.2889 114.1952
233.1929 141.2932 114.1458
233.6396 141.3327 113.6845
234.1006 141.3808 113.1249
234.5506 141.4221 112.6436
234.9312 141.4214 112.6514
235.317 141.424 112.6222
235.8224 141.4983 111.7566
236.2575 141.5301 111.3856
236.6076 141.5111 111.6069
237.0438 141.5435 111.229
237.5024 141.5892 110.6968
238.0259 141.6734 109.7165
199.0388 141.2978 109.6376
199.3845 141.2718 109.9414
199.7765 141.2787 109.8607
200.147 141.2704 109.9575
200.2977 141.1073 111.8637
200.6945 141.1178 111.7399
201.1049 141.1378 111.5064
201.4371 141.1031 111.9125
201.7642 141.0648 112.3597
202.1144 141.0428 112.6167
202.4697 141.0245 112.8307
202.8691 141.0368 112.6864
203.1541 140.9698 113.4696
203.4467 140.9082 114.1883
203.8504 140.9237 114.0075
204.3293 140.9911 113.2208
204.6872 140.9748 113.411
205.1486 141.0297 112.7689
205.6015 141.0787 112.1974
205.808 140.9586 113.5993
205.8635 140.7358 116.2021
206.0467 140.601 117.7766
206.4282 140.6017 117.7686
206.8438 140.6256 117.4895
207.2676 140.6549 117.1468
207.7386 140.7162 116.4313
208.2095 140.7771 115.7196
208.6217 140.7982 115.4729
209.009 140.8025 115.4235
209.3289 140.7614 115.9031
209.6117 140.6956 116.672
209.9511 140.6679 116.9952
210.3647 140.6899 116.7379
210.7443 140.6892 116.7465
211.048 140.6379 117.3456
211.2731 140.5345 118.5536
211.5748 140.4823 119.1628
212.0704 140.5588 118.2692
212.7325 140.7453 116.0917
213.1509 140.7701 115.8017
213.4199 140.6963 116.6638
213.692 140.6248 117.4983
213.8698 140.4916 119.054
214.1318 140.4142 119.9585
214.6714 140.5187 118.7378
215.2759 140.6652 117.0266
215.88 140.811 115.3238
216.2892 140.8293 115.1097
216.6174 140.795 115.5113
216.8634 140.7074 116.5341
217.0591 140.5876 117.9337
217.3812 140.5498 118.3742
217.8334 140.5962 117.8325
218.2505 140.6199 117.5563
218.6373 140.6239 117.5095
219.0267 140.6296 117.4427
219.3891 140.618 117.578
219.7129 140.5817 118.0017
220.0372 140.5459 118.4204
220.4912 140.5929 117.8716
220.9961 140.6721 116.9461
221.3391 140.6482 117.2256
221.704 140.6383 117.3415
222.1075 140.6528 117.1718
222.5028 140.662 117.0636
222.8503 140.6412 117.3075
223.1744 140.6056 117.7232
223.4703 140.5524 118.344
223.8412 140.5464 118.4138
224.228 140.5506 118.3658
224.6003 140.5455 118.4248
225.0235 140.5723 118.1117
225.4851 140.623 117.52
225.9125 140.6522 117.1785
226.2887 140.6495 117.2104
226.6625 140.6453 117.2596
227.064 140.6582 117.1084
227.5069 140.6967 116.6584
227.898 140.7032 116.5834
228.2846 140.7067 116.5416
228.7466 140.7567 115.9575
229.1592 140.7763 115.7296
229.5391 140.7757 115.7365
229.9117 140.7706 115.7963
230.3297 140.7932 115.5316
230.7691 140.8289 115.1149
231.3043 140.9227 114.0186
231.8118 140.9995 113.1223
232.2453 141.0311 112.7531
232.5683 140.9955 113.1685
232.8926 140.9609 113.5731
233.272 140.9597 113.5872
233.7932 141.044 112.6027
234.1873 141.0515 112.5145
234.582 141.0593 112.4231
234.925 141.0361 112.6949
235.3441 141.0586 112.4324
235.8189 141.1143 111.7815
236.2465 141.1416 111.4621
236.6725 141.1679 111.155
237.0406 141.1596 111.2516
237.4813 141.1946 110.8434
199.4141 140.9104 109.6965
200.1637 140.8998 109.8207
200.4266 140.816 110.8028
200.7597 140.7817 111.2045
201.1434 140.7829 111.1904
201.5094 140.7717 111.3217
201.8605 140.7502 111.5733
202.2379 140.7471 111.6101
202.5608 140.7061 112.0896
202.9102 140.6836 112.3528
203.2352 140.6444 112.8123
203.5296 140.5842 113.5177
203.8967 140.5743 113.6331
204.3155 140.6 113.3323
204.7147 140.6122 113.1899
205.2036 140.6858 112.3272
205.6442 140.7262 111.8551
205.8209 140.586 113.4962
205.8677 140.3578 116.1688
206.1294 140.2768 117.1179
206.5576 140.3091 116.7396
206.994 140.3469 116.2971
207.4271 140.3823 115.8824
207.872 140.4255 115.3757
208.243 140.4187 115.4552
208.6061 140.4068 115.5957
208.981 140.4027 115.6433
209.3136 140.3703 116.0231
209.622 140.3217 116.5913
209.9609 140.2938 116.9184
210.3437 140.2952 116.9019
210.7141 140.2884 116.982
211.0367 140.2498 117.4339
211.2512 140.1397 118.7236
211.5798 140.1055 119.1243
212.1225 140.2129 117.8659
212.8018 140.4101 115.5561
213.1587 140.3943 115.7413
213.4567 140.3398 116.3803
213.678 140.2351 117.606
213.7777 140.0512 119.7603
214.0526 139.9825 120.5651
214.6913 140.1515 118.5857
215.2868 140.2917 116.9434
215.889 140.4358 115.2557
216.2613 140.4301 115.3222
216.5902 140.3964 115.7173
216.8552 140.3213 116.5961
217.1372 140.2576 117.3429
217.4256 140.1982 118.0385
217.8679 140.238 117.5723
218.2641 140.2481 117.4542
218.6329 140.2406 117.5418
219.0302 140.2513 117.4159
219.3976 140.2429 117.5149
219.7329 140.2141 117.8521
220.0908 140.1997 118.0206
220.5334 140.2393 117.5573
221.0574 140.3304 116.4906
221.4959 140.367 116.0615
221.8824 140.3705 116.0197
222.1996 140.3304 116.4905
222.4723 140.2622 117.2889
222.8416 140.2551 117.3717
223.191 140.2356 117.6005
223.5938 140.2495 117.4371
223.9635 140.2428 117.5165
224.3391 140.2397 117.5522
224.7118 140.2348 117.6095
225.0984 140.2386 117.5647
225.518 140.2629 117.2802
225.9032 140.2658 117.2461
226.2827 140.2651 117.2543
226.6982 140.2867 117.0011
227.1385 140.3236 116.5694
227.617 140.3839 115.8629
228.0248 140.4005 115.669
228.3888 140.3901 115.7908
228.7567 140.3821 115.8844
229.1433 140.3856 115.8437
229.532 140.3904 115.7874
229.9155 140.392 115.7691
230.3069 140.3983 115.6944
230.7258 140.4214 115.4238
231.4869 140.6524 112.7188
232.0757 140.778 111.2475
232.3845 140.7337 111.7664
232.6582 140.6683 112.5321
232.9581 140.619 113.1101
233.4586 140.6907 112.2701
233.9113 140.7334 111.7701
234.3353 140.7587 111.4739
234.68 140.7364 111.7352
234.9726 140.6829 112.361
235.3427 140.676 112.4422
235.8092 140.7266 111.8493
236.3293 140.809 110.8846
236.8822 140.9107 109.6939
237.1738 140.8568 110.3249
237.5128 140.8312 110.6248
200.4356 140.4403 110.7283
200.7892 140.4203 110.9624
201.2268 140.4591 110.5068
201.6203 140.4671 110.4137
201.9493 140.4301 110.8483
202.3258 140.4262 110.8931
202.6421 140.3807 111.4281
202.9257 140.3126 112.2272
203.297 140.3055 112.3114
203.6602 140.2927 112.4609
203.9972 140.262 112.8218
204.3389 140.2346 113.1436
204.7112 140.2283 113.2179
205.1564 140.2719 112.7062
205.5248 140.2628 112.8125
205.7155 140.1328 114.3393
205.9092 140.0052 115.8374
206.2527 139.9799 116.1353
206.6502 139.9911 116.003
207.0727 140.0193 115.6718
207.502 140.0519 115.2888
207.9347 140.0868 114.8797
208.2853 140.0662 115.1208
208.6053 140.0253 115.6019
208.988 140.0264 115.5883
209.3403 140.0073 115.8134
209.6733 139.9753 116.1888
210.021 139.9532 116.4486
210.3487 139.9179 116.8631
210.7062 139.9025 117.0436
211.0617 139.8858 117.2391
211.3353 139.8151 118.0699
211.6689 139.7842 118.4329
212.1638 139.8598 117.5456
212.7771 140.0129 115.7472
213.1859 140.0312 115.5318
213.4883 139.9797 116.1365
213.6607 139.8433 117.7389
213.7823 139.6741 119.7254
214.0922 139.6285 120.2618
214.6768 139.7617 118.6969
215.2683 139.899 117.0845
215.8573 140.0342 115.4969
216.2147 140.019 115.676
216.5115 139.9645 116.3152
216.8118 139.9126 116.9246
217.1379 139.8774 117.3381
217.4715 139.8473 117.6921
217.8681 139.8576 117.5705
218.2548 139.8616 117.5238
218.6492 139.8705 117.4197
219.0476 139.8819 117.286
219.4133 139.8724 117.3966
219.7579 139.8496 117.6652
220.0764 139.8102 118.1283
220.6431 139.9284 116.74
221.1543 140.0109 115.7702
221.4925 139.9839 116.0872
221.9053 140.0041 115.8502
222.2602 139.9877 116.0428
222.534 139.9204 116.8333
222.8855 139.9021 117.0479
223.2855 139.9143 116.9054
223.6942 139.9319 116.6989
224.0373 139.9083 116.9755
224.3817 139.8858 117.2402
224.7676 139.889 117.2017
225.1389 139.8833 117.2694
225.5307 139.8902 117.1878
225.9025 139.8848 117.2517
226.3079 139.9001 117.0716
226.741 139.9325 116.6909
227.1659 139.9598 116.3711
227.6606 140.0298 115.5486
228.0931 140.0615 115.1767
228.3977 140.0146 115.7268
228.722 139.9799 116.134
229.1159 139.988 116.0401
229.4998 139.9898 116.0186
229.9657 140.0416 115.4103
230.2762 139.9987 115.9134
230.7599 140.0611 115.181
231.5104 140.285 112.5516
232.0069 140.3544 111.7361
232.3659 140.3407 111.8981
232.6628 140.2894 112.4996
233.1745 140.3677 111.5803
233.6378 140.4167 111.0055
233.9937 140.401 111.1896
234.3953 140.4128 111.0513
234.7008 140.367 111.5889
234.9723 140.3011 112.363
235.3495 140.2984 112.3944
235.8703 140.3811 111.4226
236.4642 140.5071 109.9432
200.5116 140.1113 110.1032
200.8929 140.1106 110.1108
201.3237 140.1444 109.713
201.6938 140.1359 109.8129
202.0077 140.0885 110.3714
202.352 140.0623 110.6803
202.6408 139.9978 111.439
202.9233 139.9293 112.2463
203.3216 139.9407 112.1117
203.7313 139.9599 111.8859
204.0572 139.9216 112.3372
204.3607 139.868 112.9681
204.7003 139.8393 113.3053
205.0748 139.8345 113.3619
205.4052 139.7998 113.7707
205.6808 139.728 114.6168
205.9766 139.67 115.299
206.3153 139.6414 115.636
206.6919 139.6385 115.6707
207.1038 139.6593 115.4253
207.5433 139.6987 114.9611
207.959 139.722 114.6877
208.2953 139.6919 115.0421
208.6192 139.6536 115.4928
208.9945 139.6498 115.5372
209.36 139.6395 115.6592
209.7172 139.6237 115.8447
210.0683 139.6039 116.078
210.3797 139.5578 116.6209
210.7211 139.5318 116.9272
211.0996 139.5303 116.9439
211.4531 139.5124 117.1552
211.8051 139.4936 117.3764
212.2651 139.5458 116.7616
212.7403 139.6079 116.0311
213.1846 139.6494 115.5421
213.4837 139.5959 116.172
213.6756 139.4725 117.6248
213.8865 139.362 118.926
214.2776 139.3692 118.8419
214.7663 139.4396 118.0123
215.2945 139.5354 116.8844
215.8216 139.6302 115.7685
216.1603 139.6029 116.0898
216.4359 139.535 116.889
216.7709 139.5057 117.2346
217.1432 139.5003 117.2975
217.4853 139.4756 117.5881
217.8914 139.4921 117.3948
218.2389 139.4709 117.6441
218.6382 139.483 117.5021
219.0333 139.4922 117.3927
219.4012 139.4841 117.488
219.7187 139.4442 117.9584
220.0952 139.4417 117.9876
220.5317 139.4772 117.5698
221.05 139.5642 116.5454
221.6026 139.6725 115.2698
222.0327 139.7034 114.9067
222.2884 139.6246 115.8341
222.5916 139.5759 116.4076
222.9449 139.5587 116.6099
223.3416 139.5687 116.4926
223.7537 139.5882 116.2624
224.1112 139.5737 116.4332
224.4144 139.5255 117.0008
224.7906 139.5228 117.0333
225.1758 139.5256 117.0002
225.5902 139.5465 116.7542
225.9681 139.5447 116.7748
226.3763 139.5617 116.5749
226.7792 139.5754 116.4138
227.1784 139.5867 116.281
227.6665 139.6525 115.5057
228.0814 139.6733 115.261
228.3814 139.6237 115.8445
228.7158 139.5953 116.1788
229.0632 139.575 116.4181
229.5508 139.64 115.6531
230.0017 139.6825 115.1525
230.2678 139.6128 115.9734
230.735 139.665 115.3585
231.4633 139.8749 112.8867
231.9133 139.9162 112.4008
232.2947 139.916 112.4028
232.7672 139.9706 111.7598
233.3923 140.1166 110.0403
233.8108 140.1383 109.7847
234.1247 140.0974 110.2662
234.4087 140.0387 110.9574
234.6982 139.9836 111.6069
235.0314 139.9546 111.9483
235.4394 139.9701 111.7653
235.9776 140.0629 110.6726
200.5529 139.7578 109.7633
200.9466 139.7658 109.6697
201.3302 139.7666 109.6594
201.6747 139.7404 109.9691
201.9884 139.693 110.529
202.3337 139.6676 110.8287
202.6091 139.5941 111.6967
202.9008 139.5321 112.4287
203.3066 139.5486 112.2337
203.7094 139.563 112.0633
204.0692 139.548 112.2406
204.409 139.5194 112.5783
204.7528 139.4936 112.8829
205.0837 139.4592 113.2899
205.3887 139.4072 113.9032
205.7045 139.3628 114.4273
206.0412 139.3327 114.7829
206.4003 139.3178 114.9589
206.7863 139.3211 114.9202
207.2013 139.3439 114.6507
207.6607 139.3964 114.0309
207.9669 139.3461 114.6248
208.3194 139.3269 114.852
208.655 139.2965 115.21
209.0028 139.2744 115.472
209.3793 139.2714 115.5069
209.7419 139.2592 115.6513
210.0837 139.2333 115.9572
210.3978 139.189 116.4796
210.7546 139.1732 116.6662
211.1651 139.1929 116.4342
211.5644 139.2051 116.2902
211.9348 139.1983 116.3706
212.3062 139.192 116.4438
212.684 139.1901 116.4667
213.1185 139.2253 116.0516
213.4391 139.186 116.5157
213.724 139.1236 117.2525
214.001 139.0563 118.047
214.4048 139.0715 117.8677
214.8549 139.1166 117.3348
215.321 139.1718 116.6827
215.7471 139.2012 116.3361
216.1032 139.1853 116.5241
216.426 139.148 116.9641
216.7507 139.1121 117.3876
217.111 139.0991 117.5412
217.5339 139.1262 117.2214
217.9136 139.1257 117.2275
218.275 139.1134 117.3721
218.6462 139.1075 117.4423
218.9997 139.0903 117.6449
219.3432 139.0669 117.9216
219.6279 139.0063 118.6369
219.8644 138.9155 119.7098
220.4883 139.0693 117.8935
221.3037 139.3432 114.6589
221.7415 139.3788 114.2387
222.0484 139.3321 114.7903
222.3134 139.2594 115.6491
222.6346 139.222 116.0901
222.9717 139.1947 116.413
223.3524 139.1946 116.4133
223.7487 139.2043 116.2989
224.1436 139.213 116.196
224.4575 139.1716 116.6858
224.8312 139.1673 116.7368
225.2403 139.1848 116.5298
225.6425 139.198 116.3735
226.0284 139.2012 116.3362
226.4392 139.2196 116.1183
226.8407 139.2323 115.9681
227.2301 139.2375 115.9069
227.6817 139.2808 115.3957
228.0549 139.2761 115.4518
228.4003 139.2544 115.7082
228.7334 139.2253 116.0518
229.0943 139.2131 116.1953
229.6125 139.2965 115.2108
230.1044 139.3636 114.4182
230.416 139.3215 114.9153
230.8208 139.3358 114.7467
231.3606 139.4314 113.618
231.8197 139.4781 113.0658
232.2355 139.4987 112.8225
232.7166 139.5584 112.1185
233.4492 139.7684 109.6384
234.4914 139.706 110.3752
234.8056 139.6656 110.8527
235.1533 139.6452 111.0938
235.5954 139.6808 110.6733
200.9549 139.3892 109.6014
201.3127 139.3722 109.8027
201.6553 139.3447 110.1278
201.9498 139.2842 110.8441
202.28 139.2485 111.2671
202.6077 139.2113 111.7083
202.9369 139.1751 112.136
203.3289 139.1821 112.0532
203.6998 139.1747 112.1409
204.0669 139.1647 112.2592
204.4566 139.1702 112.1945
204.83 139.1645 112.2618
205.1365 139.1135 112.8658
205.4264 139.0514 113.6013
205.7604 139.0193 113.9804
206.1187 139.0038 114.1645
206.4715 138.9846 114.3913
206.8294 138.969 114.5771
207.2213 138.9762 114.4918
207.6027 138.9763 114.4901
207.925 138.9369 114.9569
208.3106 138.9399 114.9213
208.6779 138.9307 115.0303
209.0305 138.9118 115.2538
209.3984 138.9031 115.357
209.7693 138.8963 115.4369
210.1276 138.8814 115.6138
210.4739 138.8585 115.8849
210.8684 138.8675 115.7788
211.323 138.9159 115.2057
211.6838 138.9026 115.3624
211.9175 138.8062 116.5049
212.2249 138.7582 117.0729
212.6229 138.7695 116.9386
212.9839 138.7567 117.0902
213.3762 138.7643 116.9999
213.7511 138.7606 117.0442
214.1073 138.7448 117.2318
214.4909 138.7467 117.2088
214.9079 138.7703 116.9296
215.33 138.797 116.6133
215.7208 138.8034 116.537
216.0509 138.7709 116.9217
216.4008 138.7512 117.1555
216.7449 138.7279 117.4316
217.1571 138.7481 117.1925
217.6082 138.793 116.6603
217.9556 138.7719 116.9108
218.3251 138.7648 116.9947
218.6861 138.7523 117.1425
219.0123 138.7179 117.5502
219.319 138.6712 118.1029
219.61 138.6147 118.7712
220.1173 138.6948 117.8227
220.9042 138.9505 114.7958
221.5778 139.1341 112.6213
221.8268 139.051 113.6056
222.0452 138.9489 114.814
222.348 138.9 115.393
222.6949 138.8788 115.6448
223.0326 138.8518 115.9639
223.3945 138.8401 116.1031
223.7316 138.8129 116.425
224.1109 138.812 116.4358
224.509 138.8227 116.3088
224.8876 138.8214 116.3244
225.2914 138.8355 116.1567
225.6624 138.8295 116.2283
226.0575 138.8383 116.1246
226.4768 138.8619 115.8449
226.8811 138.8762 115.6755
227.2776 138.8857 115.5628
227.701 138.9116 115.2561
228.0803 138.9106 115.2685
228.4454 138.9009 115.3832
228.782 138.8739 115.7024
229.1617 138.8732 115.7116
229.6613 138.945 114.8613
230.1893 139.0337 113.811
230.5781 139.0381 113.7581
230.9124 139.0098 114.0939
231.3173 139.024 113.9259
231.7165 139.0347 113.7992
231.9764 138.9619 114.6607
232.6536 139.1389 112.5645
233.4235 139.3707 109.82
234.2053 139.381 109.6987
234.5539 139.3609 109.9359
234.9108 139.3459 110.1143
235.3336 139.3699 109.8297
200.9522 139.0049 109.6241
201.3311 139.0026 109.6522
201.6681 138.9713 110.0231
201.9645 138.9123 110.724
202.311 138.8879 111.0142
202.6569 138.8631 111.3081
203.0084 138.8423 111.5549
203.3711 138.8292 111.7105
203.7249 138.8101 111.9377
204.1067 138.81 111.9381
204.5037 138.8204 111.815
204.8587 138.8022 112.0313
205.1665 138.7522 112.625
205.4695 138.6991 113.2554
205.799 138.664 113.6713
206.1532 138.6458 113.8886
206.4919 138.6171 114.2286
206.8443 138.5977 114.4587
207.2998 138.6474 113.8689
207.6205 138.607 114.349
207.9222 138.554 114.9785
208.3115 138.5594 114.9137
208.7115 138.5719 114.765
209.083 138.5655 114.8414
209.4398 138.5495 115.0317
209.8037 138.5381 115.1666
210.1755 138.532 115.2395
210.5529 138.5296 115.2677
210.9668 138.5512 115.0117
211.4511 138.6188 114.2085
211.7403 138.5586 114.9235
211.8605 138.3881 116.9472
212.1253 138.3126 117.8439
212.5532 138.3435 117.4772
212.9544 138.3569 117.3177
213.3546 138.3696 117.1668
213.7772 138.3969 116.8431
214.1622 138.3997 116.8102
214.5796 138.4234 116.529
215.0321 138.4696 115.9804
215.3918 138.4559 116.1423
215.6871 138.4011 116.7931
216.0237 138.3729 117.1284
216.4155 138.38 117.0439
216.7767 138.3676 117.1906
217.1778 138.3807 117.0358
217.6268 138.4242 116.5195
217.9905 138.4134 116.6478
218.365 138.4094 116.6947
218.7199 138.3931 116.8888
218.9962 138.3271 117.6714
219.2478 138.2459 118.6361
219.5764 138.2134 119.0218
220.2379 138.3902 116.9233
221.1299 138.7109 113.1146
221.88 138.9417 110.3743
221.9805 138.7657 112.4647
222.1071 138.6064 114.3555
222.3949 138.5482 115.0466
222.7045 138.5038 115.5745
223.0497 138.4816 115.8379
223.4526 138.4952 115.6755
223.8143 138.4833 115.8169
224.1738 138.4701 115.9745
224.5682 138.4784 115.8751
224.9418 138.4739 115.9287
225.3243 138.4749 115.9166
225.6847 138.4624 116.0657
226.0753 138.4684 115.9945
226.4999 138.4951 115.6775
226.9211 138.5197 115.3855
227.3279 138.5354 115.1986
227.7478 138.559 114.9186
228.122 138.5548 114.9683
228.4893 138.5465 115.0673
228.8442 138.5306 115.2557
229.2254 138.5307 115.2545
229.723 138.601 114.4197
230.2519 138.69 113.3635
230.6339 138.6903 113.3593
230.9682 138.662 113.6959
231.3528 138.6639 113.6733
231.6917 138.6384 113.9756
231.9182 138.5459 115.0739
232.5881 138.7182 113.0282
233.2584 138.8901 110.9871
233.7531 138.9572 110.1914
234.1536 138.968 110.0627
234.5716 138.9892 109.8111
236.1287 139.0056 109.6164
236.4665 138.9794 109.9268
200.931 138.608 109.7979
202.0042 138.5574 110.4002
202.4192 138.5799 110.1324
202.7121 138.5189 110.8592
203.0604 138.4959 111.1329
203.4278 138.4859 111.2514
203.7911 138.4732 111.4025
204.1667 138.4689 111.4535
204.5306 138.4568 111.5986
204.856 138.4186 112.0529
205.1686 138.372 112.6082
205.5008 138.3387 113.0044
205.8521 138.3183 113.2468
206.1957 138.2929 113.5495
206.5194 138.2543 114.0095
206.8941 138.2498 114.0621
207.3969 138.3309 113.0975
207.7455 138.3089 113.3584
208.0579 138.263 113.9054
208.3787 138.2228 114.3835
208.733 138.205 114.5956
209.1317 138.2166 114.4581
209.511 138.2153 114.4732
209.8729 138.2026 114.6245
210.2543 138.2028 114.6223
210.6421 138.2071 114.5711
211.032 138.2128 114.5031
211.5034 138.2717 113.8015
211.894 138.0293 116.6875
212.1362 137.9392 117.7597
212.5485 137.9599 117.5135
212.964 137.9826 117.2437
213.3981 138.0173 116.831
213.8325 138.0519 116.4183
214.2519 138.0768 116.1219
214.736 138.1432 115.3312
215.1016 138.1333 115.449
215.3628 138.0565 116.3634
215.6386 137.9894 117.163
216.0293 137.9958 117.0863
216.4757 138.0378 116.5867
216.8369 138.0254 116.7344
217.2356 138.0368 116.5984
217.6299 138.0454 116.496
217.9813 138.0268 116.7172
218.3711 138.0326 116.6488
218.7207 138.0129 116.8825
218.948 137.9163 118.0324
219.2436 137.863 118.6673
219.8047 137.9766 117.3155
220.5347 138.1955 114.7087
221.1864 138.3647 112.6943
221.764 138.4871 111.2371
221.9941 138.3925 112.364
222.2 138.2831 113.6665
222.4099 138.1765 114.935
222.7022 138.1214 115.5911
223.0622 138.1084 115.7453
223.427 138.0985 115.8638
223.8655 138.134 115.4407
224.262 138.1436 115.3271
224.639 138.1411 115.357
225.0079 138.1336 115.4454
225.4035 138.1426 115.3385
225.7858 138.1434 115.3293
226.1519 138.1342 115.4383
226.5423 138.14 115.3695
226.9787 138.1737 114.9683
227.3794 138.1857 114.826
227.7744 138.1941 114.7259
228.1334 138.1806 114.8858
228.4898 138.1657 115.0642
228.884 138.1736 114.9698
229.3396 138.2185 114.4352
229.8724 138.3097 113.3494
230.3401 138.3615 112.7324
230.6669 138.3286 113.1238
231.0058 138.3031 113.4279
231.3969 138.3089 113.3594
231.7821 138.311 113.3334
232.1507 138.3034 113.4248
232.7094 138.4088 112.169
233.2035 138.4755 111.375
233.7319 138.5623 110.3414
234.1487 138.5829 110.0972
234.5034 138.5666 110.2908
201.7165 138.24 109.6274
202.0712 138.2211 109.8528
202.4505 138.2191 109.877
202.7237 138.1447 110.7646
203.1037 138.1433 110.7818
203.4939 138.1488 110.7153
203.844 138.1271 110.9745
204.1953 138.1064 111.2222
204.5541 138.0907 111.4095
204.8707 138.0467 111.9351
205.177 137.9959 112.5408
205.5288 137.9759 112.7802
205.8952 137.9657 112.9023
206.2156 137.9248 113.3908
206.571 137.9074 113.5983
206.9907 137.9329 113.2934
207.4595 137.991 112.6005
207.8187 137.976 112.7784
208.1321 137.9309 113.3177
208.4315 137.8765 113.9665
208.7415 137.8295 114.5285
209.1372 137.839 114.4148
209.5253 137.8435 114.3605
209.9214 137.8533 114.2439
210.3796 137.9037 113.642
210.6641 137.8403 114.3991
211.0395 137.8365 114.445
211.5397 137.914 113.519
211.8828 137.8891 113.8166
211.9671 137.6961 116.1202
212.1522 137.5692 117.6356
212.5552 137.5838 117.4613
213.0002 137.6254 116.9648
213.4531 137.672 116.4082
213.898 137.7133 115.9149
214.3807 137.7788 115.1336
214.8362 137.8265 114.5635
215.11 137.7577 115.385
215.3536 137.6699 116.4336
215.6443 137.6124 117.1193
216.0144 137.6057 117.1997
216.4378 137.6329 116.8743
216.8168 137.6319 116.8871
217.236 137.6563 116.5959
217.6103 137.6522 116.6444
217.9557 137.63 116.9102
218.3508 137.639 116.8021
218.7159 137.6293 116.9185
218.9392 137.5304 118.0985
219.2666 137.4972 118.4951
219.8429 137.6199 117.0301
220.5203 137.8054 114.8161
221.1607 137.9671 112.8857
221.601 138.0037 112.4485
221.9704 137.996 112.5405
222.1731 137.8849 113.866
222.4104 137.7957 114.9317
222.7135 137.7475 115.5075
223.0779 137.7372 115.6299
223.4572 137.7362 115.6422
223.8755 137.7592 115.3675
224.2994 137.7855 115.0534
224.7114 137.8044 114.827
225.1062 137.8128 114.7268
225.513 137.8285 114.5396
225.9053 137.8353 114.4592
226.2521 137.8143 114.7093
226.6189 137.8055 114.8139
227.0307 137.8242 114.5911
227.4367 137.8392 114.4118
227.8168 137.8385 114.4199
228.1696 137.8214 114.6246
228.5023 137.7921 114.974
228.9247 137.817 114.6769
229.4273 137.89 113.806
229.9239 137.9591 112.9803
230.3304 137.974 112.8025
230.6748 137.9518 113.0679
231.0186 137.9293 113.3363
231.4335 137.9492 113.0987
231.862 137.9771 112.7654
232.3193 138.0221 112.2285
232.7851 138.072 111.6332
233.2605 138.1273 110.9724
233.767 138.201 110.0932
234.1948 138.2278 109.7728
234.558 138.2166 109.9066
201.7075 137.8515 109.7009
202.0475 137.8227 110.0458
202.4297 137.8226 110.0467
202.7225 137.7618 110.7743
203.1514 137.7936 110.3941
203.5409 137.7985 110.3349
203.8464 137.7468 110.9547
204.1936 137.7233 111.2363
204.5666 137.7172 111.3084
204.9343 137.7076 111.423
205.2775 137.6817 111.7338
205.5835 137.6309 112.3421
205.9416 137.6151 112.531
206.2546 137.5693 113.0789
206.6195 137.5583 113.2115
207.0324 137.5791 112.9623
207.4722 137.6177 112.4998
207.8165 137.593 112.7959
208.1234 137.5436 113.3868
208.4292 137.4937 113.9849
208.7338 137.4432 114.5889
209.1191 137.4459 114.5571
209.5039 137.4482 114.529
209.9608 137.4978 113.935
210.3214 137.4842 114.0976
210.6701 137.463 114.3521
211.0816 137.4827 114.1163
211.5803 137.559 113.203
211.9434 137.547 113.3461
211.9962 137.3341 115.8947
212.1312 137.1751 117.7981
212.5617 137.2074 117.4113
213.0424 137.272 116.6385
213.4989 137.3208 116.0549
213.9615 137.3732 115.4267
214.4387 137.4349 114.6886
214.8747 137.4699 114.269
215.2002 137.4343 114.6953
215.4206 137.3318 115.9219
215.6474 137.2338 117.0958
215.9625 137.1921 117.5945
216.3742 137.212 117.3571
216.7896 137.234 117.0932
217.2384 137.2771 116.5776
217.6386 137.2894 116.4305
217.9875 137.2693 116.6708
218.3723 137.2719 116.6396
218.7386 137.2628 116.7484
219.0015 137.189 117.6316
219.3415 137.1637 117.9347
219.8543 137.2464 116.945
220.4949 137.4084 115.0059
221.0554 137.52 113.6699
221.5408 137.5846 112.8962
221.9088 137.5761 112.9974
222.138 137.4819 114.126
222.3617 137.3845 115.2917
222.7261 137.3743 115.4143
223.1068 137.374 115.4168
223.5139 137.3901 115.2249
223.9256 137.4089 114.9994
224.3564 137.4393 114.6351
224.7694 137.4588 114.4022
225.1507 137.4588 114.4019
225.5514 137.4707 114.2598
225.9745 137.4961 113.9551
226.3313 137.4813 114.1334
226.6416 137.4382 114.6484
227.0823 137.4742 114.2174
227.4998 137.4961 113.9552
227.8652 137.4865 114.0701
228.215 137.4675 114.2975
228.561 137.4463 114.5516
229.0187 137.4923 114.0012
229.5428 137.5778 112.9773
229.9204 137.5755 113.0054
230.2872 137.5667 113.1107
230.7112 137.592 112.8078
231.0715 137.5793 112.9597
231.4836 137.5974 112.7425
231.9439 137.6441 112.1834
232.4314 137.7068 111.4338
232.934 137.7782 110.5787
233.3646 137.8068 110.236
233.7966 137.8361 109.885
234.9682 137.8507 109.7105
202.4513 137.4551 109.8703
202.7899 137.4254 110.2263
203.2333 137.4668 109.7294
203.5671 137.4341 110.1224
203.8353 137.3573 111.0443
204.1741 137.3282 111.3934
204.5659 137.3348 111.3137
204.9952 137.3665 110.9333
205.3457 137.3454 111.1865
205.6484 137.2925 111.8218
205.979 137.2583 112.2318
206.3208 137.2318 112.5508
206.6788 137.2161 112.7394
207.0701 137.2225 112.6622
207.4794 137.2408 112.4424
207.8083 137.2059 112.8609
208.1238 137.1624 113.3833
208.4369 137.1174 113.9233
208.7388 137.0653 114.5496
209.0779 137.0376 114.8812
209.4913 137.0588 114.6277
209.9259 137.0937 114.2084
210.3381 137.1138 113.9669
210.7192 137.1137 113.9686
211.1179 137.1249 113.8334
211.5627 137.1661 113.3397
211.92 137.1504 113.5275
211.9621 136.9312 116.1594
212.1757 136.8234 117.4535
212.6052 136.8549 117.0754
213.0829 136.9173 116.3261
213.5123 136.9485 115.9519
213.9597 136.991 115.4411
214.4563 137.065 114.5534
214.9095 137.1108 114.0026
215.3703 137.1615 113.3948
215.5378 137.0254 115.0279
215.6663 136.8651 116.9523
215.9546 136.8067 117.6542
216.3864 136.8391 117.2645
216.8127 136.868 116.9183
217.2735 136.9185 116.3116
217.7042 136.9499 115.9348
218.0608 136.9346 116.1179
218.42 136.9211 116.281
218.7789 136.9073 116.4455
219.1145 136.8792 116.784
219.4075 136.8244 117.4406
219.8135 136.8403 117.25
220.4104 136.9747 115.6365
220.9777 137.0903 114.2486
221.4936 137.1737 113.2475
221.8526 137.1599 113.4143
222.0158 137.0251 115.0316
222.2983 136.9644 115.7609
222.7084 136.9823 115.5455
223.1336 137.0095 115.2192
223.5446 137.0279 114.9983
223.9459 137.0402 114.8503
224.3884 137.0777 114.4003
224.8008 137.0967 114.1725
225.1769 137.0935 114.2103
225.5957 137.1164 113.9361
225.9703 137.1123 113.9851
226.3039 137.0833 114.3328
226.6574 137.0666 114.534
227.1107 137.1101 114.0115
227.5434 137.1411 113.6399
227.8717 137.1091 114.0232
228.2353 137.0985 114.1512
228.6373 137.1109 114.0017
229.1259 137.1751 113.2314
229.5746 137.2153 112.7488
229.9438 137.2079 112.8375
230.3105 137.199 112.9447
230.8 137.2632 112.1739
231.1819 137.2633 112.1724
231.5836 137.2751 112.0312
232.0415 137.3201 111.4902
232.5232 137.3791 110.7823
232.9927 137.4306 110.1635
203.5613 137.048 110.1691
203.8355 136.9753 111.0432
204.1623 136.9383 111.489
204.592 136.9704 111.1034
205.0181 136.9998 110.749
205.3804 136.9866 110.9077
205.6735 136.9274 111.6206
206.0532 136.9259 111.6383
206.4327 136.9244 111.6567
206.7702 136.895 112.0106
207.1409 136.8877 112.0985
207.5102 136.8794 112.1977
207.8369 136.8432 112.6344
208.187 136.8224 112.8837
208.4756 136.7615 113.618
208.7231 136.6738 114.6738
209.0497 136.6381 115.103
209.4823 136.6717 114.6981
209.9515 136.729 114.0084
210.3697 136.753 113.7196
210.7575 136.7572 113.6698
211.134 136.754 113.7076
211.5313 136.7642 113.5844
211.8932 136.7516 113.736
212.0937 136.6351 115.1387
212.3543 136.5577 116.0711
212.7405 136.5611 116.0294
213.1584 136.5849 115.7439
213.5408 136.5858 115.7324
214.007 136.6403 115.077
214.4716 136.6935 114.4365
214.9189 136.7355 113.9306
215.392 136.7938 113.2287
215.6129 136.692 114.4546
215.7449 136.5343 116.353
216.035 136.4769 117.0431
216.492 136.5252 116.4627
216.893 136.5379 116.3094
217.3339 136.5757 115.8548
217.767 136.6084 115.4608
218.1278 136.5958 115.6127
218.4632 136.5673 115.9557
218.8311 136.5592 116.0528
219.2311 136.5711 115.9098
219.6223 136.5775 115.8326
219.9724 136.5584 116.0628
220.4658 136.6282 115.2227
221.1147 136.7939 113.2277
221.6714 136.902 111.9257
221.7065 136.6883 114.4989
221.826 136.5273 116.4375
222.2448 136.5506 116.1563
222.693 136.5919 115.6592
223.1268 136.6243 115.2693
223.5459 136.6476 114.989
223.9782 136.6788 114.6132
224.4476 136.7325 113.9661
224.8813 136.7644 113.5826
225.3013 136.7878 113.3007
225.669 136.7794 113.4017
225.9881 136.7417 113.856
226.3403 136.7241 114.0677
226.7392 136.7347 113.9403
227.1534 136.7545 113.7017
227.5415 136.7585 113.6533
227.85 136.7148 114.1804
228.2466 136.7239 114.0698
228.6925 136.7626 113.6049
229.1747 136.8227 112.8807
229.5879 136.8416 112.6533
229.9629 136.8376 112.701
230.3574 136.8453 112.609
230.8394 136.9048 111.8924
231.2288 136.9093 111.8384
231.6469 136.9307 111.5807
232.1011 136.9734 111.0668
232.5194 136.9948 110.8094
233.0164 137.0624 109.9953
203.5468 136.656 110.2871
203.8681 136.6152 110.7794
204.2194 136.5946 111.028
204.6187 136.6061 110.8885
205.0144 136.6152 110.7788
205.3661 136.5951 111.0222
205.6995 136.5628 111.4122
206.1413 136.6025 110.9329
206.5475 136.6184 110.7402
206.8431 136.5614 111.4294
207.2014 136.5458 111.6174
207.5699 136.5369 111.7241
207.9647 136.5454 111.6213
208.3329 136.5365 111.7295
208.5067 136.4004 113.3727
208.6686 136.257 115.1031
209.0364 136.2484 115.2075
209.5094 136.3082 114.4851
209.9754 136.3632 113.8209
210.3729 136.3737 113.6947
210.7654 136.3809 113.6078
211.1572 136.3876 113.5274
211.5486 136.394 113.4499
211.8826 136.3635 113.8181
212.165 136.2999 114.5858
212.5288 136.2888 114.7201
212.9272 136.2998 114.5872
213.2741 136.2778 114.8519
213.6324 136.2633 115.0273
214.0259 136.2712 114.932
214.461 136.3055 114.5176
214.9073 136.3468 114.0188
215.328 136.3717 113.7183
215.6318 136.3227 114.3102
215.8644 136.2289 115.4429
216.1741 136.184 115.9849
216.6099 136.2185 115.5676
216.9721 136.2067 115.7101
217.3856 136.2271 115.4639
217.8172 136.2588 115.0818
218.1718 136.2423 115.2813
218.5008 136.2099 115.6725
218.8935 136.2171 115.5847
219.3352 136.2549 115.1286
219.7775 136.2929 114.6703
220.0535 136.2278 115.4564
220.6554 136.3643 113.8081
221.2429 136.4915 112.273
221.6549 136.5101 112.0482
221.6669 136.2827 114.7927
221.8553 136.1644 116.2208
222.2603 136.1793 116.0417
222.706 136.219 115.5625
223.1055 136.2303 115.4261
223.5271 136.255 115.1278
224.0047 136.3138 114.4181
224.4985 136.3821 113.5929
224.9669 136.4349 112.9563
225.3568 136.4399 112.8956
225.7068 136.4209 113.1255
226.0249 136.3826 113.5877
226.4399 136.4028 113.3434
226.8414 136.4148 113.1984
227.2018 136.4021 113.3512
227.5276 136.3688 113.7538
227.8606 136.3398 114.1036
228.2946 136.3713 113.7235
228.7844 136.436 112.9431
229.2032 136.4581 112.6754
229.6035 136.4692 112.5416
229.9739 136.4625 112.6224
230.3806 136.4773 112.4433
230.8142 136.5081 112.0726
231.2193 136.5219 111.9063
231.6758 136.5659 111.3747
232.115 136.5996 110.9681
232.5727 136.644 110.4315
233.0506 136.7002 109.7531
203.5913 136.3036 109.9264
203.9531 136.2899 110.0913
204.3098 136.2729 110.2975
204.6662 136.2558 110.5054
205.0222 136.2384 110.7158
205.3558 136.2062 111.1053
205.7422 136.2091 111.0702
206.2016 136.2602 110.4511
206.517 136.2162 110.9836
206.879 136.2031 111.1433
207.2392 136.1888 111.3165
207.6143 136.1842 111.3708
208.0568 136.2239 110.8908
208.3873 136.1902 111.2992
208.5035 136.0169 113.3974
208.7188 135.9087 114.7071
209.0905 135.9025 114.7822
209.5639 135.9624 114.0571
209.9935 135.9936 113.6789
210.3668 135.9884 113.742
210.7539 135.9921 113.6976
211.1795 136.0205 113.3528
211.5854 136.0362 113.163
211.8653 135.971 113.9529
212.1885 135.9337 114.4035
212.5933 135.9488 114.221
213.007 135.9695 113.9705
213.352 135.9464 114.2508
213.6528 135.8952 114.8705
214.0283 135.8916 114.9135
214.4627 135.9254 114.5046
214.9105 135.9675 113.9946
215.2896 135.9661 114.0116
215.6329 135.9422 114.3017
215.9596 135.9078 114.7171
216.301 135.8829 115.0195
216.654 135.8652 115.2331
217.0073 135.8479 115.4432
217.4244 135.8704 115.1701
217.8281 135.8846 114.9991
218.1718 135.8613 115.2811
218.5197 135.8406 115.5307
218.9682 135.8825 115.0236
219.3913 135.9086 114.7083
219.8166 135.9359 114.3779
220.1316 135.895 114.8725
220.6493 135.9791 113.8541
221.1472 136.0509 112.9858
221.479 136.0203 113.3557
221.6506 135.8916 114.9133
221.9345 135.8321 115.634
222.372 135.8666 115.2158
222.735 135.8557 115.3485
223.0911 135.8405 115.5323
223.5443 135.8844 115.0011
224.0427 135.9556 114.1388
224.522 136.015 113.4203
224.9347 136.0339 113.1916
225.313 136.0319 113.2151
225.6824 136.0246 113.3034
226.0717 136.0293 113.2464
226.4787 136.0446 113.0616
226.909 136.0738 112.7077
227.26 136.0555 112.9296
227.5629 136.0085 113.499
227.9134 135.99 113.7225
228.3874 136.0452 113.0543
228.8324 136.0829 112.5977
229.2157 136.0839 112.5856
229.5695 136.0674 112.7854
229.9912 136.0911 112.4984
230.4232 136.1208 112.1386
230.8327 136.1372 111.9401
231.2685 136.169 111.5555
231.7336 136.2179 110.9636
232.2108 136.2738 110.2872
232.644 136.3036 109.9257
204.0128 135.9475 109.6088
204.3552 135.9209 109.9313
204.6989 135.8953 110.2419
205.0294 135.861 110.6581
205.3995 135.8531 110.7544
205.8564 135.9025 110.1547
206.2817 135.9309 109.8103
206.555 135.8592 110.6807
206.9395 135.8608 110.6611
207.2744 135.8298 111.0366
207.5885 135.7854 111.5758
208.019 135.8172 111.1909
208.3374 135.7757 111.6937
208.571 135.6793 112.8645
208.8451 135.6095 113.7121
209.2358 135.6155 113.6389
209.6712 135.6504 113.2147
210.0519 135.6499 113.2211
210.388 135.6206 113.5765
210.7617 135.6157 113.6367
211.1906 135.6461 113.267
211.5755 135.6484 113.2397
211.8856 135.6027 113.7946
212.2477 135.5903 113.9445
212.6252 135.5879 113.9739
212.9956 135.5809 114.0585
213.3603 135.5704 114.1865
213.6942 135.5403 114.5514
214.0487 135.5234 114.7564
214.4644 135.5452 114.4918
214.9062 135.5835 114.0275
215.2773 135.577 114.1059
215.6253 135.5561 114.3599
216.0105 135.5586 114.3294
216.3412 135.5269 114.7139
216.6643 135.4906 115.1546
217.0319 135.4822 115.2571
217.4392 135.4986 115.0584
217.8044 135.4887 115.1782
218.1268 135.4523 115.6202
218.5338 135.4684 115.4247
219.0106 135.5277 114.7046
219.4033 135.5348 114.6185
219.7906 135.5386 114.5727
220.1776 135.5422 114.5289
220.6461 135.5958 113.8779
221.1216 135.6536 113.1762
221.4508 135.6216 113.5653
221.7419 135.5663 114.2356
222.0968 135.5502 114.4315
222.4532 135.5351 114.6147
222.7806 135.5024 115.0122
223.1237 135.4793 115.2924
223.6814 135.5864 113.992
224.1839 135.6597 113.1021
224.5731 135.6644 113.0455
224.9258 135.647 113.2569
225.3259 135.6582 113.1208
225.7491 135.6832 112.8167
226.1069 135.6689 112.9905
226.4839 135.6662 113.0235
226.953 135.7186 112.3878
227.3389 135.721 112.3576
227.6556 135.6823 112.828
228.0154 135.6693 112.9853
228.4604 135.707 112.5275
228.8552 135.7148 112.4335
229.1862 135.6848 112.7973
229.5683 135.6851 112.7939
230.0488 135.7435 112.0855
230.507 135.7884 111.5394
230.9324 135.814 111.2286
231.3346 135.8259 111.0844
231.798 135.8736 110.5051
232.2718 135.9273 109.8541
204.3567 135.5396 109.9194
204.6878 135.5058 110.3313
205.0295 135.479 110.6571
205.459 135.5103 110.2768
207.0158 135.5286 110.0531
207.2925 135.4596 110.8929
207.5997 135.4109 111.4868
207.9783 135.4087 111.5137
208.3565 135.4062 111.5429
208.6798 135.3682 112.0057
208.9798 135.3153 112.6501
209.3804 135.3276 112.5007
209.8054 135.3555 112.1603
210.1375 135.3235 112.5501
210.4838 135.3008 112.8267
210.8751 135.307 112.7514
211.2898 135.3282 112.4933
211.6274 135.3001 112.8357
211.9816 135.2825 113.0492
212.3091 135.2481 113.4682
212.6395 135.2157 113.8632
212.999 135.2018 114.0323
213.3885 135.207 113.969
213.744 135.1906 114.1679
214.0752 135.159 114.5531
214.4549 135.158 114.5647
214.8786 135.1848 114.239
215.2658 135.1885 114.1938
215.6285 135.1769 114.3355
216.04 135.1958 114.1052
216.3891 135.1757 114.3497
216.7246 135.1471 114.6973
217.1042 135.1462 114.7088
217.4651 135.1336 114.8621
217.7701 135.0864 115.4374
218.0785 135.0414 115.9848
218.5125 135.0743 115.5846
218.982 135.1289 114.9196
219.3741 135.1357 114.8369
219.78 135.1508 114.6521
220.2422 135.2006 114.0463
220.7239 135.2622 113.2971
221.1194 135.2707 113.1931
221.49 135.264 113.2743
221.8634 135.2591 113.3338
222.2028 135.2335 113.6464
222.5216 135.1955 114.109
222.8294 135.1508 114.6521
223.1688 135.1256 114.96
223.8519 135.3081 112.7377
224.4158 135.4181 111.3982
224.7034 135.3613 112.0906
225.0042 135.3126 112.6833
225.4301 135.3392 112.3594
225.8377 135.3547 112.1707
226.1703 135.3253 112.5289
226.532 135.3133 112.674
227.0034 135.3669 112.0222
227.4022 135.377 111.8991
227.7758 135.3721 111.9581
228.1572 135.3719 111.9612
228.5479 135.3772 111.8969
228.9161 135.3691 111.995
229.2528 135.3425 112.3188
229.6605 135.3578 112.1327
230.1456 135.4186 111.3921
230.5945 135.458 110.9132
230.9821 135.4612 110.8737
231.3948 135.4792 110.6551
231.8387 135.5153 110.2153
205.1499 135.1762 109.6886
205.9009 135.1673 109.7979
206.2744 135.1615 109.8682
206.6676 135.1686 109.7814
207.0203 135.1493 110.0176
207.3426 135.1102 110.4943
207.6597 135.068 111.0104
208.0152 135.0507 111.2209
208.4017 135.0537 111.185
208.7561 135.0358 111.4027
209.1044 135.0141 111.668
209.4955 135.0201 111.595
209.8746 135.0183 111.6168
210.1857 134.9728 112.172
210.5319 134.95 112.4501
210.955 134.9765 112.1272
211.3602 134.9915 111.9443
211.7048 134.9678 112.2335
212.0539 134.947 112.487
212.371 134.906 112.9881
212.6849 134.8631 113.5117
213.046 134.8502 113.6688
213.44 134.8582 113.5719
213.816 134.8547 113.6138
214.1338 134.8147 114.1029
214.4923 134.8004 114.2772
214.9038 134.8194 114.0457
215.2805 134.8165 114.0812
215.6508 134.8096 114.1648
216.0851 134.8427 113.7612
216.4932 134.8593 113.5584
216.846 134.8415 113.7758
217.19 134.8183 114.0584
217.5339 134.7951 114.3418
217.8457 134.7521 114.8665
218.1678 134.7157 115.3114
218.5581 134.7214 115.2415
218.9777 134.7451 114.952
219.3911 134.765 114.7095
219.9048 134.8463 113.7174
220.339 134.8786 113.3229
220.7397 134.8903 113.1795
221.0926 134.8728 113.3927
221.4789 134.8758 113.3564
221.9048 134.9028 113.0265
222.2869 134.9031 113.0228
222.5746 134.8463 113.717
222.8204 134.7643 114.7181
223.2206 134.7758 114.5778
224.0048 135.0187 111.612
224.5586 135.1221 110.3493
224.7449 135.0045 111.7856
225.0827 134.978 112.1087
225.491 134.9939 111.9146
225.8756 134.9956 111.8939
226.2338 134.9815 112.0662
226.6078 134.9769 112.1224
227.0296 135.0007 111.8316
227.4437 135.0198 111.5983
227.8387 135.0276 111.5027
228.2245 135.0299 111.475
228.616 135.0356 111.4058
228.9863 135.0287 111.4898
229.3724 135.0312 111.4593
229.847 135.0856 110.7947
230.2925 135.1229 110.3398
230.6634 135.1163 110.4203
231.0893 135.1418 110.1085
231.4837 135.149 110.0213
231.8994 135.1685 109.7836
205.4722 134.7546 110.1702
205.8647 134.7613 110.0883
206.1789 134.7168 110.6328
206.6473 134.7731 109.9433
207.0432 134.782 109.8347
207.4489 134.7972 109.6489
207.8015 134.7779 109.8847
208.1149 134.7333 110.4308
208.4502 134.703 110.8015
208.7879 134.6744 111.1517
209.1429 134.6571 111.3641
209.558 134.6784 111.1034
210.0476 134.7474 110.2586
210.2263 134.6171 111.8535
210.5122 134.5558 112.604
210.9422 134.5866 112.2268
211.3609 134.6101 111.9389
211.7165 134.5935 112.1428
212.0734 134.5777 112.3356
212.443 134.57 112.4298
212.7969 134.5524 112.645
213.1462 134.5321 112.8944
213.5456 134.5433 112.7571
213.9337 134.5474 112.7072
214.2334 134.4959 113.3368
214.585 134.4772 113.5665
214.9774 134.4841 113.4818
215.2924 134.4426 113.99
215.6339 134.4177 114.2945
216.1383 134.4944 113.356
216.5919 134.5391 112.8079
216.929 134.5116 113.1457
217.212 134.4506 113.8923
217.5706 134.4365 114.0643
217.9651 134.4447 113.9646
218.3566 134.4509 113.8879
218.7458 134.4557 113.8294
219.0955 134.4363 114.0669
219.5267 134.4669 113.6929
219.978 134.5096 113.1695
220.3937 134.5305 112.9138
220.7485 134.5141 113.1141
221.0862 134.4875 113.4402
221.4881 134.4999 113.2884
221.9231 134.5323 112.8912
222.2892 134.523 113.006
222.5291 134.4374 114.0537
222.78 134.3587 115.017
223.2735 134.4264 114.1877
223.9709 134.6164 111.862
224.4812 134.6935 110.9182
224.7826 134.6452 111.5098
225.1166 134.6165 111.8605
225.4914 134.6123 111.9118
225.863 134.6062 111.9863
226.233 134.5992 112.0722
226.6277 134.6069 111.9781
227.0701 134.6429 111.5376
227.4815 134.6604 111.3237
227.8926 134.6776 111.1132
228.3187 134.7036 110.7947
228.7062 134.7068 110.7555
229.0651 134.6931 110.9223
229.4569 134.6989 110.8521
229.9844 134.7841 109.8084
230.3816 134.7928 109.702
230.7591 134.7901 109.7359
205.8978 134.4007 109.8225
206.2941 134.4098 109.7111
208.1643 134.383 110.0392
208.4883 134.3455 110.5001
208.8547 134.3354 110.624
209.2361 134.335 110.6294
209.7076 134.3922 109.9267
210.0737 134.3819 110.053
210.2829 134.2714 111.4096
210.5871 134.2219 112.0179
210.9998 134.2415 111.7767
211.3842 134.2431 111.757
211.7465 134.2308 111.9088
212.1082 134.218 112.0658
212.4995 134.224 111.9915
212.8842 134.2258 111.9691
213.2284 134.2022 112.2594
213.5605 134.171 112.6425
213.8693 134.1254 113.2031
214.2683 134.1363 113.0691
214.7351 134.1896 112.4145
215.0959 134.1765 112.5748
215.3275 134.0831 113.7219
215.7779 134.126 113.195
216.2407 134.1764 112.576
216.6334 134.1833 112.4922
216.8775 134.0982 113.5362
217.2022 134.0632 113.9662
217.5934 134.0693 113.8918
218.0084 134.09 113.6378
218.4454 134.1241 113.2183
218.8549 134.1413 113.0078
219.2124 134.1265 113.1888
219.5721 134.1132 113.3526
219.9863 134.1332 113.1071
220.3894 134.1463 112.9465
220.7497 134.1333 113.1052
221.1127 134.1221 113.243
221.5192 134.1373 113.0569
221.9262 134.1526 112.8681
222.2752 134.133 113.1097
222.5491 134.0681 113.9053
222.8401 134.0138 114.5724
223.2327 134.0207 114.4885
223.9278 134.2088 112.1788
224.4497 134.2926 111.1495
224.8297 134.2914 111.1641
225.145 134.2517 111.6519
225.5558 134.2689 111.4405
225.898 134.2453 111.7305
226.2309 134.2162 112.0872
226.6619 134.2454 111.7289
